ncols        489
nrows        39
xllcorner    -118.305972222
yllcorner    36.5631944445
cellsize     0.000277777778
NODATA_value -9999
3784 3803 3818 3832 3848 3867 3880 3892 3908 3923 3933 3949 3968 3989 4010 4032 4047 4064 4081 4105 4123 4134 4141 4142 4143 4144 4145 4150 4153 4154 4156 4156 4154 4154 4157 4158 4167 4172 4179 4181 4187 4194 4203 4211 4220 4229 4239 4248 4258 4267 4274 4277 4276 4279 4275 4244 4215 4182 4142 4076 4058 3987 3984 3971 3948 3934 3926 3918 3904 3894 3886 3878 3881 3869 3860 3851 3865 3859 3845 3847 3854 3869 3866 3875 3880 3879 3876 3871 3860 3851 3846 3832 3828 3823 3811 3801 3796 3791 3791 3784 3770 3769 3763 3756 3750 3742 3730 3727 3719 3715 3715 3716 3706 3701 3699 3696 3690 3694 3683 3674 3660 3663 3688 3695 3694 3689 3685 3676 3567 3544 3540 3536 3535 3531 3528 3528 3521 3515 3515 3514 3505 3502 3499 3491 3483 3482 3481 3483 3483 3479 3473 3470 3470 3467 3457 3437 3426 3407 3382 3349 3328 3316 3310 3305 3301 3297 3289 3279 3268 3256 3243 3229 3216 3205 3190 3174 3167 3160 3158 3158 3158 3159 3157 3154 3152 3152 3151 3149 3143 3140 3134 3121 3105 3090 3076 3071 3069 3068 3069 3072 3079 3086 3095 3099 3104 3110 3120 3130 3145 3170 3203 3234 3251 3264 3279 3291 3310 3339 3373 3405 3435 3461 3486 3506 3520 3513 3501 3493 3479 3470 3457 3439 3425 3413 3379 3371 3356 3331 3308 3270 3261 3254 3228 3223 3188 3169 3157 3123 3104 3097 3069 3013 3004 2975 2957 2940 2932 2918 2906 2893 2881 2869 2858 2850 2842 2835 2832 2834 2837 2842 2847 2854 2860 2867 2876 2888 2903 2920 2926 2940 2946 2955 2975 2993 3008 3014 3020 3031 3035 3039 3037 3038 3043 3038 3034 3044 3062 3065 3071 3092 3113 3115 3114 3106 3096 3079 3060 3037 3022 2996 2971 2953 2932 2921 2915 2904 2895 2863 2839 2814 2795 2788 2774 2751 2729 2716 2704 2696 2695 2700 2706 2715 2721 2733 2739 2758 2780 2800 2814 2824 2843 2859 2869 2890 2900 2899 2889 2873 2855 2832 2804 2790 2776 2757 2735 2723 2704 2694 2682 2671 2658 2648 2615 2580 2555 2512 2488 2472 2461 2446 2433 2425 2417 2415 2422 2439 2456 2470 2478 2480 2482 2482 2484 2483 2476 2466 2455 2449 2451 2459 2472 2488 2495 2505 2511 2516 2523 2535 2544 2551 2558 2563 2561 2556 2524 2496 2477 2475 2467 2456 2445 2435 2424 2408 2390 2372 2358 2347 2338 2327 2314 2300 2286 2268 2255 2243 2233 2222 2208 2198 2184 2167 2143 2129 2116 2100 2087 2074 2063 2053 2044 2035 2025 2012 1997 1984 1973 1963 1958 1953 1947 1937 1929 1920 1914 1909 1905 1899 1889 1877 1868 1865 1863 1859 1853 1845 1837 1832 1829 1824 1819 1814 1810 1807 1805 1802 1797 1794 1790 1788 1787 1786 1785 1781 1778 1775 1773 1769 1765
3768 3787 3805 3822 3836 3852 3864 3876 3892 3910 3923 3939 3959 3978 4005 4032 4046 4056 4070 4091 4108 4118 4124 4125 4126 4128 4128 4128 4130 4132 4133 4136 4136 4138 4138 4143 4152 4159 4166 4170 4177 4186 4197 4206 4218 4225 4232 4239 4246 4255 4264 4271 4273 4272 4267 4259 4252 4209 4154 4021 4002 3987 3990 3973 3953 3939 3927 3923 3911 3898 3886 3880 3876 3863 3855 3848 3845 3844 3843 3843 3848 3853 3862 3871 3878 3882 3877 3867 3869 3854 3848 3834 3824 3817 3809 3802 3796 3789 3789 3784 3768 3768 3769 3758 3753 3750 3747 3743 3737 3724 3721 3710 3706 3704 3701 3699 3693 3685 3679 3663 3650 3644 3676 3685 3657 3635 3650 3643 3533 3522 3517 3512 3509 3506 3504 3496 3488 3480 3477 3474 3469 3463 3456 3453 3454 3453 3452 3454 3456 3459 3453 3447 3437 3428 3413 3405 3389 3375 3337 3329 3316 3305 3292 3285 3279 3270 3261 3252 3240 3228 3215 3201 3185 3172 3165 3160 3156 3155 3153 3153 3154 3154 3152 3151 3153 3155 3155 3153 3147 3136 3125 3109 3096 3088 3081 3076 3074 3078 3082 3086 3092 3099 3106 3113 3121 3129 3141 3155 3174 3196 3219 3242 3256 3274 3290 3313 3334 3371 3412 3441 3481 3510 3532 3553 3551 3537 3526 3511 3500 3483 3470 3461 3433 3420 3378 3368 3349 3322 3294 3264 3257 3249 3220 3182 3177 3165 3137 3117 3094 3083 3057 3030 3005 2984 2962 2961 2943 2927 2913 2902 2891 2878 2864 2854 2848 2846 2844 2847 2853 2859 2865 2870 2874 2886 2895 2907 2921 2932 2942 2952 2971 2993 3018 3035 3040 3040 3044 3051 3056 3060 3067 3077 3079 3079 3077 3078 3084 3085 3105 3134 3145 3143 3136 3121 3101 3082 3064 3037 3014 2989 2980 2969 2929 2924 2917 2910 2893 2866 2838 2810 2796 2786 2774 2756 2739 2727 2719 2715 2719 2722 2728 2733 2744 2754 2764 2781 2800 2818 2825 2848 2862 2877 2889 2919 2926 2924 2913 2895 2875 2854 2826 2800 2793 2769 2752 2736 2719 2703 2691 2679 2665 2642 2617 2586 2552 2521 2491 2481 2469 2456 2440 2434 2427 2429 2441 2460 2478 2492 2498 2500 2505 2508 2507 2503 2493 2483 2474 2467 2468 2479 2496 2508 2519 2527 2535 2540 2548 2561 2569 2578 2579 2579 2575 2559 2559 2503 2492 2484 2476 2462 2452 2440 2427 2412 2393 2378 2368 2361 2351 2341 2327 2311 2295 2279 2262 2249 2239 2230 2216 2202 2187 2174 2156 2138 2121 2105 2090 2077 2066 2056 2046 2035 2024 2011 1997 1988 1978 1967 1962 1958 1952 1943 1936 1929 1923 1918 1910 1902 1891 1881 1874 1869 1867 1863 1856 1849 1842 1837 1831 1824 1818 1814 1811 1810 1808 1804 1800 1796 1794 1793 1793 1791 1788 1785 1782 1779 1777 1774 1771
3750 3769 3786 3804 3819 3832 3848 3868 3891 3907 3921 3935 3952 3974 3997 4016 4036 4052 4064 4081 4095 4104 4108 4111 4114 4112 4109 4109 4109 4112 4114 4117 4119 4122 4125 4132 4142 4149 4154 4162 4170 4178 4190 4201 4210 4219 4227 4236 4244 4250 4257 4264 4271 4268 4266 4263 4269 4235 4171 4083 3994 3997 3975 3966 3950 3937 3925 3912 3895 3882 3873 3864 3859 3854 3845 3835 3830 3827 3828 3828 3832 3837 3844 3851 3857 3863 3866 3866 3861 3848 3843 3839 3828 3824 3819 3812 3806 3800 3792 3788 3782 3780 3779 3767 3762 3756 3748 3746 3738 3730 3714 3707 3697 3691 3688 3684 3677 3661 3660 3654 3639 3617 3585 3615 3539 3551 3576 3530 3519 3511 3505 3498 3492 3489 3484 3481 3473 3465 3460 3454 3446 3432 3422 3418 3418 3421 3425 3430 3433 3434 3428 3422 3413 3404 3395 3379 3363 3337 3316 3304 3298 3280 3269 3258 3251 3237 3226 3214 3204 3195 3183 3171 3164 3159 3157 3155 3153 3153 3151 3151 3151 3151 3151 3152 3155 3159 3160 3156 3144 3129 3116 3106 3097 3093 3090 3090 3091 3097 3101 3103 3106 3112 3119 3127 3135 3149 3156 3173 3191 3207 3222 3244 3264 3287 3317 3353 3378 3411 3451 3507 3528 3558 3569 3576 3565 3557 3539 3527 3514 3494 3476 3463 3426 3404 3376 3368 3352 3329 3296 3276 3260 3242 3210 3187 3171 3153 3135 3113 3089 3071 3056 3033 3013 2995 2982 2967 2951 2936 2922 2910 2897 2881 2868 2860 2857 2855 2857 2863 2869 2873 2877 2889 2896 2907 2919 2932 2945 2954 2962 2979 3007 3029 3053 3064 3074 3079 3078 3077 3081 3084 3095 3104 3112 3109 3100 3102 3108 3124 3164 3162 3169 3156 3146 3134 3110 3089 3069 3027 3046 3011 2986 2966 2943 2926 2931 2923 2897 2866 2837 2806 2798 2784 2772 2758 2747 2740 2737 2737 2741 2746 2757 2764 2773 2779 2785 2799 2816 2825 2856 2871 2889 2899 2923 2939 2946 2941 2928 2910 2892 2877 2840 2813 2789 2775 2766 2748 2731 2717 2699 2680 2656 2636 2612 2592 2565 2538 2500 2487 2474 2460 2450 2448 2440 2445 2461 2481 2498 2508 2517 2523 2531 2533 2531 2522 2513 2505 2501 2498 2499 2504 2519 2532 2544 2555 2560 2571 2582 2591 2600 2604 2605 2597 2584 2574 2556 2516 2509 2493 2482 2466 2453 2441 2431 2419 2403 2388 2378 2371 2364 2354 2339 2319 2302 2288 2273 2260 2246 2234 2218 2202 2190 2178 2158 2143 2130 2111 2096 2082 2071 2059 2049 2037 2023 2008 1996 1990 1985 1978 1974 1970 1966 1959 1950 1939 1931 1926 1919 1909 1897 1889 1881 1873 1869 1865 1860 1853 1846 1839 1831 1826 1822 1818 1816 1814 1811 1806 1802 1798 1796 1796 1796 1793 1791 1789 1786 1783 1782 1780 1778
3732 3750 3765 3786 3802 3816 3833 3859 3888 3907 3919 3934 3949 3962 3981 4003 4027 4046 4052 4067 4085 4091 4093 4092 4091 4090 4091 4092 4093 4095 4098 4101 4104 4108 4116 4124 4132 4143 4151 4157 4162 4171 4182 4193 4202 4210 4218 4229 4238 4248 4253 4259 4264 4266 4268 4262 4260 4226 4162 4101 4123 3975 3962 3953 3941 3932 3918 3903 3888 3875 3866 3859 3853 3846 3835 3827 3823 3822 3820 3821 3822 3825 3831 3835 3842 3847 3848 3846 3843 3840 3835 3828 3821 3816 3811 3806 3800 3794 3790 3784 3780 3776 3774 3771 3766 3758 3748 3737 3723 3714 3705 3698 3688 3683 3677 3670 3662 3655 3644 3632 3612 3591 3576 3568 3557 3544 3532 3525 3515 3506 3497 3489 3482 3477 3471 3465 3458 3446 3435 3429 3419 3409 3400 3394 3390 3388 3390 3394 3400 3402 3402 3399 3391 3385 3377 3361 3336 3315 3307 3292 3276 3263 3250 3238 3222 3211 3198 3186 3179 3173 3167 3163 3160 3157 3156 3155 3153 3152 3152 3153 3155 3157 3160 3160 3163 3165 3165 3160 3145 3126 3112 3105 3099 3096 3095 3096 3104 3107 3111 3114 3119 3125 3131 3139 3149 3162 3173 3183 3198 3216 3236 3258 3284 3309 3350 3385 3409 3465 3511 3544 3552 3572 3588 3593 3587 3568 3550 3534 3524 3507 3476 3450 3420 3409 3382 3373 3362 3335 3323 3298 3264 3235 3208 3186 3169 3147 3122 3103 3090 3064 3052 3025 3009 3002 2991 2977 2960 2939 2924 2912 2898 2884 2876 2870 2866 2865 2868 2874 2880 2888 2892 2902 2909 2921 2936 2954 2974 2987 2992 3012 3041 3066 3085 3099 3107 3108 3108 3107 3109 3117 3123 3125 3127 3127 3122 3129 3148 3182 3188 3175 3171 3166 3152 3132 3117 3090 3055 3021 3038 3010 2985 2951 2938 2933 2933 2924 2903 2869 2840 2814 2801 2785 2773 2759 2753 2752 2757 2763 2769 2776 2786 2791 2802 2800 2810 2830 2837 2850 2873 2891 2910 2933 2954 2965 2971 2955 2945 2917 2900 2874 2848 2820 2806 2794 2774 2759 2733 2712 2702 2682 2652 2629 2610 2584 2562 2532 2508 2490 2476 2466 2459 2452 2466 2467 2485 2504 2519 2532 2549 2562 2567 2564 2558 2552 2539 2527 2525 2523 2523 2528 2540 2549 2565 2577 2588 2600 2609 2614 2622 2623 2618 2606 2593 2574 2550 2539 2516 2502 2488 2476 2462 2453 2446 2436 2424 2408 2399 2390 2375 2364 2340 2320 2305 2295 2282 2270 2255 2241 2226 2211 2199 2184 2161 2145 2131 2113 2097 2084 2073 2063 2053 2038 2024 2011 2004 1998 1993 1987 1984 1982 1979 1969 1954 1942 1932 1926 1920 1912 1902 1895 1887 1878 1871 1866 1860 1854 1847 1840 1834 1827 1825 1823 1819 1816 1812 1808 1805 1802 1798 1797 1797 1795 1792 1789 1786 1784 1783 1782 1782
3720 3734 3751 3770 3790 3807 3824 3847 3877 3893 3914 3925 3938 3957 3978 4003 4021 4031 4044 4052 4059 4065 4071 4075 4076 4074 4073 4074 4077 4078 4081 4087 4094 4101 4108 4114 4123 4133 4142 4150 4157 4168 4177 4185 4191 4200 4210 4222 4233 4241 4247 4252 4256 4262 4264 4258 4251 4197 4135 4084 4063 3988 3958 3949 3930 3920 3909 3897 3883 3873 3863 3855 3846 3837 3830 3828 3823 3823 3823 3821 3819 3821 3823 3827 3829 3831 3833 3831 3829 3826 3818 3811 3804 3800 3795 3792 3788 3783 3779 3775 3768 3766 3765 3761 3754 3744 3731 3722 3713 3705 3697 3687 3680 3674 3666 3658 3650 3642 3633 3619 3604 3584 3573 3563 3552 3536 3527 3519 3506 3496 3488 3481 3473 3464 3454 3445 3434 3427 3416 3408 3401 3395 3388 3383 3377 3374 3374 3374 3377 3382 3383 3378 3372 3366 3357 3344 3328 3311 3300 3286 3265 3254 3241 3226 3210 3194 3183 3175 3171 3168 3165 3162 3161 3159 3159 3155 3151 3151 3153 3157 3161 3165 3168 3170 3171 3171 3169 3164 3151 3136 3123 3112 3101 3100 3100 3105 3108 3111 3117 3125 3131 3141 3150 3160 3167 3174 3184 3196 3206 3231 3257 3286 3311 3343 3377 3418 3459 3514 3539 3552 3564 3586 3605 3606 3605 3591 3570 3551 3538 3521 3476 3447 3421 3407 3382 3375 3362 3334 3319 3300 3269 3237 3207 3185 3175 3143 3117 3095 3078 3064 3048 3026 3015 3006 2996 2981 2962 2946 2929 2915 2904 2895 2888 2883 2881 2880 2882 2885 2894 2899 2906 2914 2923 2932 2950 2969 3000 3011 3038 3056 3078 3096 3112 3129 3138 3142 3142 3143 3145 3145 3148 3146 3144 3151 3159 3175 3191 3189 3190 3184 3170 3160 3142 3127 3114 3093 3059 3048 3033 3005 2972 2954 2942 2934 2931 2914 2890 2864 2849 2830 2813 2802 2780 2768 2765 2768 2776 2790 2796 2802 2807 2815 2820 2823 2834 2848 2866 2879 2901 2920 2945 2965 2986 2982 2983 2969 2951 2916 2904 2894 2860 2831 2813 2804 2800 2776 2737 2715 2692 2678 2653 2623 2594 2581 2561 2532 2529 2504 2488 2472 2468 2471 2477 2485 2504 2520 2541 2565 2584 2592 2594 2591 2587 2579 2566 2556 2551 2550 2554 2555 2564 2572 2581 2598 2611 2623 2631 2633 2633 2632 2624 2612 2601 2584 2563 2549 2532 2513 2502 2491 2481 2470 2459 2449 2437 2428 2417 2404 2386 2367 2351 2333 2313 2301 2291 2277 2260 2244 2231 2219 2203 2178 2156 2145 2133 2118 2102 2086 2073 2066 2058 2045 2031 2023 2017 2009 2000 1992 1988 1986 1983 1976 1965 1952 1941 1931 1920 1908 1900 1894 1889 1882 1873 1865 1858 1853 1848 1842 1837 1830 1826 1823 1819 1818 1815 1812 1809 1807 1804 1801 1799 1798 1793 1790 1789 1787 1785 1784 1785
3709 3722 3735 3753 3775 3797 3815 3833 3851 3873 3893 3904 3922 3946 3967 3988 4006 4018 4027 4031 4030 4034 4042 4052 4057 4060 4059 4061 4064 4066 4070 4077 4084 4092 4100 4106 4113 4121 4129 4139 4149 4159 4169 4177 4185 4194 4205 4222 4232 4237 4242 4247 4255 4258 4261 4257 4248 4167 4090 4052 3990 3959 3955 3937 3923 3908 3898 3890 3878 3868 3859 3852 3843 3835 3829 3826 3824 3823 3824 3823 3821 3822 3823 3824 3823 3822 3821 3820 3815 3808 3801 3794 3785 3781 3777 3775 3773 3771 3768 3763 3758 3754 3750 3745 3738 3729 3719 3709 3700 3694 3687 3680 3673 3667 3659 3652 3645 3637 3627 3615 3597 3583 3564 3554 3543 3532 3521 3512 3497 3489 3482 3475 3464 3452 3439 3429 3422 3411 3402 3395 3389 3379 3371 3366 3362 3358 3356 3353 3354 3356 3356 3355 3355 3355 3348 3334 3320 3305 3292 3273 3248 3240 3231 3219 3204 3186 3175 3169 3166 3164 3164 3162 3161 3160 3157 3155 3153 3154 3156 3159 3165 3171 3174 3177 3178 3176 3172 3165 3155 3148 3138 3127 3117 3114 3114 3116 3118 3124 3131 3141 3151 3161 3172 3180 3185 3193 3202 3211 3229 3253 3281 3312 3344 3373 3409 3451 3500 3526 3541 3560 3578 3613 3623 3619 3610 3603 3591 3556 3552 3521 3467 3439 3423 3401 3390 3378 3346 3330 3324 3299 3275 3246 3208 3181 3168 3144 3114 3098 3084 3054 3038 3021 3012 3004 2994 2979 2964 2950 2930 2916 2907 2902 2898 2893 2892 2893 2895 2901 2909 2913 2918 2925 2938 2954 2969 2996 3022 3051 3070 3089 3100 3116 3137 3154 3166 3170 3169 3168 3168 3168 3170 3171 3177 3188 3195 3200 3203 3193 3189 3175 3157 3143 3133 3118 3102 3073 3049 3022 3026 3005 2974 2958 2940 2930 2919 2903 2883 2865 2859 2848 2832 2816 2803 2788 2787 2792 2800 2811 2818 2825 2829 2838 2843 2853 2863 2876 2888 2905 2929 2955 2973 2999 3016 3017 2997 2988 2956 2933 2914 2894 2880 2835 2828 2817 2801 2777 2744 2699 2681 2675 2651 2622 2595 2574 2556 2546 2538 2525 2491 2483 2484 2486 2493 2507 2522 2542 2568 2591 2603 2607 2609 2609 2607 2600 2590 2580 2577 2573 2574 2577 2587 2593 2606 2622 2634 2644 2651 2651 2647 2640 2632 2618 2606 2595 2576 2565 2546 2527 2517 2507 2496 2482 2470 2460 2452 2441 2427 2410 2393 2375 2354 2334 2317 2303 2289 2276 2264 2250 2239 2221 2202 2179 2162 2148 2134 2119 2107 2093 2079 2068 2059 2049 2038 2030 2022 2013 2003 1995 1990 1985 1979 1973 1966 1957 1945 1930 1918 1904 1896 1893 1889 1882 1872 1865 1859 1854 1850 1844 1839 1834 1829 1825 1822 1820 1818 1816 1814 1813 1810 1805 1803 1800 1796 1794 1794 1790 1785 1783 1783
3699 3712 3724 3738 3759 3782 3803 3816 3826 3835 3857 3879 3903 3926 3951 3972 3988 4001 4007 4006 4008 4014 4025 4036 4041 4044 4048 4052 4056 4060 4065 4069 4074 4083 4091 4098 4105 4113 4122 4130 4139 4149 4163 4173 4183 4193 4207 4219 4228 4236 4239 4244 4254 4257 4261 4259 4259 4168 4000 4016 3989 3949 3940 3922 3907 3895 3887 3882 3874 3866 3857 3850 3845 3838 3832 3829 3826 3825 3824 3823 3822 3821 3821 3818 3818 3813 3811 3807 3800 3794 3788 3782 3773 3769 3765 3762 3760 3759 3757 3756 3751 3746 3740 3733 3724 3717 3707 3700 3693 3687 3679 3673 3668 3663 3658 3651 3643 3636 3629 3619 3604 3587 3570 3555 3546 3537 3527 3512 3501 3490 3483 3474 3465 3451 3438 3426 3415 3405 3394 3389 3380 3366 3356 3350 3344 3339 3334 3335 3336 3336 3334 3334 3333 3337 3337 3319 3311 3300 3290 3266 3245 3234 3225 3212 3199 3185 3172 3167 3165 3164 3163 3161 3159 3158 3157 3157 3155 3156 3156 3161 3169 3177 3180 3184 3184 3182 3180 3173 3164 3151 3145 3138 3136 3135 3136 3138 3140 3144 3153 3158 3168 3178 3188 3203 3206 3216 3228 3235 3252 3272 3304 3330 3364 3396 3423 3483 3504 3523 3555 3584 3612 3632 3635 3627 3623 3612 3598 3566 3549 3502 3470 3458 3430 3403 3391 3378 3357 3330 3320 3292 3273 3254 3214 3185 3158 3138 3119 3090 3070 3048 3030 3019 3010 3002 2992 2980 2969 2957 2938 2926 2917 2911 2907 2905 2908 2911 2918 2922 2926 2929 2935 2947 2960 2979 3000 3025 3055 3072 3086 3102 3115 3134 3159 3165 3190 3189 3188 3189 3192 3199 3200 3206 3213 3217 3217 3216 3209 3202 3173 3156 3142 3126 3110 3099 3080 3075 3048 3026 3005 3007 2962 2950 2943 2929 2914 2898 2879 2868 2859 2852 2836 2832 2817 2812 2814 2821 2825 2833 2839 2845 2853 2868 2876 2887 2895 2903 2920 2936 2961 2985 3017 3043 3041 3025 3021 2998 2960 2933 2916 2892 2868 2848 2831 2814 2805 2770 2741 2703 2684 2671 2657 2636 2599 2587 2565 2555 2544 2533 2503 2492 2489 2500 2512 2524 2544 2567 2587 2612 2627 2633 2634 2632 2628 2620 2609 2603 2603 2600 2594 2599 2606 2618 2633 2646 2655 2658 2666 2669 2664 2653 2641 2628 2613 2601 2589 2574 2560 2544 2532 2521 2509 2497 2482 2472 2465 2455 2431 2412 2398 2380 2344 2325 2306 2293 2283 2271 2263 2251 2240 2215 2199 2172 2160 2150 2136 2119 2109 2096 2084 2071 2061 2052 2043 2034 2025 2016 2007 1999 1991 1983 1977 1970 1962 1952 1938 1925 1911 1900 1894 1892 1892 1886 1875 1866 1860 1856 1851 1845 1840 1835 1832 1828 1825 1822 1820 1819 1818 1818 1817 1813 1807 1803 1801 1799 1796 1792 1787 1785 1784
3691 3701 3713 3721 3734 3756 3778 3794 3807 3820 3839 3857 3883 3914 3929 3954 3968 3978 3980 3983 3993 4005 4015 4025 4025 4028 4035 4039 4045 4050 4054 4058 4064 4072 4080 4090 4097 4106 4116 4125 4134 4146 4159 4171 4181 4193 4205 4217 4225 4232 4236 4249 4256 4257 4266 4252 4257 4131 4041 3972 3945 3935 3921 3908 3894 3884 3880 3876 3871 3864 3855 3850 3846 3842 3838 3833 3828 3827 3825 3825 3824 3823 3821 3816 3809 3803 3799 3795 3790 3786 3781 3774 3767 3764 3758 3753 3750 3748 3747 3746 3742 3736 3729 3720 3711 3703 3697 3691 3685 3679 3673 3669 3667 3663 3659 3653 3645 3637 3629 3621 3609 3594 3579 3567 3553 3539 3537 3529 3507 3500 3492 3481 3469 3454 3438 3426 3416 3406 3396 3386 3368 3350 3347 3331 3324 3316 3311 3311 3311 3313 3311 3312 3315 3316 3312 3306 3300 3289 3269 3265 3246 3229 3218 3213 3203 3188 3177 3167 3163 3163 3162 3162 3161 3159 3157 3156 3156 3157 3161 3167 3175 3181 3187 3191 3192 3194 3193 3189 3182 3169 3158 3155 3154 3154 3154 3155 3159 3166 3169 3179 3188 3195 3204 3213 3218 3231 3241 3256 3271 3294 3327 3352 3391 3422 3453 3484 3514 3548 3579 3613 3639 3648 3645 3637 3627 3615 3595 3577 3544 3490 3483 3451 3419 3400 3396 3384 3365 3330 3310 3287 3268 3260 3225 3185 3143 3121 3106 3085 3063 3046 3037 3023 3012 3001 2991 2981 2972 2959 2947 2938 2932 2925 2918 2916 2920 2926 2932 2939 2947 2955 2962 2971 2982 3001 3029 3056 3071 3084 3096 3110 3124 3144 3168 3193 3206 3211 3210 3213 3215 3229 3233 3236 3237 3236 3235 3220 3214 3183 3165 3146 3132 3116 3102 3088 3073 3062 3040 3026 3008 2993 2976 2955 2948 2934 2917 2903 2884 2870 2864 2856 2851 2839 2846 2847 2841 2845 2845 2856 2872 2887 2902 2913 2915 2915 2932 2946 2956 2978 3003 3055 3057 3059 3052 3040 3025 3002 2972 2936 2923 2892 2865 2848 2822 2801 2795 2764 2740 2708 2689 2677 2669 2651 2620 2592 2581 2561 2550 2533 2517 2504 2504 2514 2527 2541 2564 2590 2609 2633 2651 2660 2662 2657 2654 2649 2634 2626 2624 2630 2625 2628 2639 2646 2656 2662 2668 2670 2676 2678 2671 2659 2647 2639 2626 2615 2599 2581 2569 2558 2547 2535 2523 2507 2495 2489 2471 2453 2428 2401 2380 2366 2346 2316 2303 2296 2284 2277 2268 2256 2236 2221 2203 2181 2166 2154 2141 2122 2109 2098 2092 2078 2065 2057 2049 2039 2030 2023 2016 2007 1997 1990 1983 1973 1962 1950 1938 1927 1917 1907 1901 1896 1892 1887 1878 1869 1863 1860 1855 1849 1844 1838 1834 1832 1831 1827 1825 1823 1821 1820 1819 1816 1810 1805 1803 1802 1798 1792 1788 1787 1785
3675 3686 3696 3708 3716 3730 3748 3777 3796 3811 3827 3844 3863 3886 3909 3926 3942 3949 3952 3959 3978 3994 4001 4006 4010 4012 4016 4021 4027 4031 4035 4041 4050 4059 4067 4078 4088 4097 4108 4119 4131 4145 4158 4170 4181 4192 4203 4215 4221 4223 4239 4248 4255 4228 4225 4245 4151 4101 4009 3950 3936 3926 3912 3896 3886 3880 3875 3871 3866 3860 3854 3850 3847 3844 3842 3837 3832 3828 3826 3824 3824 3822 3817 3807 3799 3794 3793 3791 3786 3781 3776 3769 3761 3755 3748 3741 3736 3731 3729 3730 3729 3723 3715 3705 3698 3693 3688 3682 3676 3672 3666 3663 3663 3661 3656 3651 3643 3636 3627 3620 3608 3597 3587 3575 3566 3560 3559 3538 3533 3519 3504 3489 3474 3458 3443 3430 3415 3404 3395 3385 3368 3349 3333 3320 3315 3307 3291 3290 3288 3282 3278 3276 3282 3283 3283 3283 3279 3269 3259 3248 3239 3230 3227 3217 3214 3208 3195 3182 3170 3164 3165 3163 3162 3161 3159 3159 3159 3162 3167 3175 3182 3188 3192 3198 3200 3201 3202 3197 3192 3182 3173 3169 3168 3165 3165 3166 3172 3181 3191 3201 3205 3211 3219 3229 3235 3248 3264 3282 3296 3329 3352 3378 3409 3437 3469 3515 3540 3584 3609 3641 3646 3643 3645 3638 3620 3602 3587 3578 3511 3496 3481 3445 3422 3401 3390 3383 3361 3344 3316 3292 3267 3251 3219 3180 3138 3103 3097 3089 3076 3056 3039 3024 3010 2999 2990 2981 2973 2965 2953 2944 2939 2932 2928 2926 2931 2939 2946 2958 2967 2972 2980 2991 3007 3028 3047 3066 3079 3094 3108 3121 3138 3161 3188 3208 3221 3232 3233 3235 3241 3253 3253 3251 3249 3244 3237 3229 3203 3187 3160 3146 3132 3118 3105 3087 3074 3056 3041 3026 3010 2997 2980 2964 2960 2941 2935 2913 2898 2886 2871 2865 2867 2869 2877 2880 2879 2882 2890 2904 2914 2922 2933 2937 2948 2962 2976 3007 3017 3050 3063 3070 3074 3070 3074 3063 3036 3008 2972 2954 2910 2889 2863 2831 2809 2789 2766 2755 2739 2720 2702 2687 2673 2658 2638 2612 2588 2571 2555 2544 2531 2523 2526 2538 2551 2563 2584 2604 2626 2652 2660 2681 2680 2677 2675 2669 2660 2654 2661 2657 2660 2666 2673 2676 2679 2681 2685 2687 2689 2688 2679 2669 2655 2646 2635 2619 2607 2594 2584 2574 2561 2546 2529 2510 2501 2493 2472 2455 2420 2397 2362 2347 2338 2323 2308 2299 2289 2280 2269 2253 2237 2219 2199 2185 2174 2162 2148 2130 2114 2103 2095 2085 2074 2063 2053 2041 2033 2024 2019 2012 2003 1993 1983 1973 1963 1952 1943 1933 1925 1918 1910 1903 1896 1890 1884 1876 1870 1863 1858 1854 1851 1845 1839 1837 1836 1833 1830 1827 1824 1822 1818 1814 1812 1810 1808 1805 1799 1794 1792 1790 1787
3660 3670 3679 3692 3702 3714 3731 3750 3778 3800 3815 3830 3843 3860 3876 3891 3905 3917 3927 3940 3956 3971 3980 3984 3985 3987 3993 3999 4007 4016 4024 4032 4039 4049 4056 4065 4076 4090 4103 4117 4128 4143 4154 4166 4179 4194 4204 4206 4209 4227 4233 4242 4245 4152 4166 4180 4178 4075 3941 3946 3937 3922 3903 3888 3878 3872 3866 3863 3862 3860 3857 3853 3848 3844 3843 3838 3833 3827 3824 3823 3822 3820 3814 3805 3798 3792 3789 3787 3781 3774 3766 3759 3751 3742 3736 3729 3722 3717 3714 3711 3708 3703 3697 3691 3687 3681 3674 3666 3662 3660 3657 3656 3653 3650 3644 3640 3636 3629 3621 3612 3602 3594 3589 3585 3583 3584 3580 3565 3545 3535 3519 3505 3487 3467 3449 3429 3414 3402 3389 3381 3366 3350 3334 3319 3306 3292 3280 3272 3265 3261 3258 3257 3256 3256 3256 3257 3257 3254 3249 3246 3240 3236 3234 3233 3234 3232 3212 3192 3178 3169 3166 3165 3166 3164 3162 3163 3166 3172 3178 3183 3187 3190 3195 3201 3203 3204 3202 3199 3194 3187 3183 3183 3183 3181 3181 3184 3192 3203 3206 3211 3219 3226 3234 3246 3267 3281 3293 3311 3333 3354 3380 3401 3432 3473 3500 3538 3580 3605 3634 3647 3643 3641 3642 3624 3607 3598 3585 3538 3498 3489 3457 3442 3425 3404 3384 3372 3355 3337 3315 3293 3260 3245 3214 3184 3138 3107 3088 3084 3078 3062 3042 3025 3008 2999 2991 2984 2980 2972 2960 2951 2945 2942 2939 2938 2943 2953 2959 2966 2974 2983 2990 3004 3018 3037 3059 3078 3095 3114 3129 3146 3158 3178 3203 3220 3236 3248 3248 3258 3266 3268 3264 3257 3251 3243 3234 3222 3201 3180 3171 3159 3141 3128 3116 3102 3090 3070 3051 3036 3024 3006 2992 2979 2968 2962 2940 2928 2904 2894 2887 2884 2889 2893 2899 2903 2909 2923 2929 2941 2941 2945 2950 2963 2984 3008 3022 3036 3064 3085 3083 3077 3079 3079 3073 3068 3057 3021 2973 2947 2907 2872 2836 2832 2796 2783 2767 2751 2739 2731 2712 2693 2671 2651 2633 2617 2591 2577 2566 2554 2545 2547 2554 2566 2573 2585 2600 2624 2641 2662 2677 2688 2694 2700 2700 2698 2693 2690 2697 2694 2694 2694 2697 2704 2709 2711 2714 2713 2713 2708 2692 2678 2667 2657 2648 2633 2618 2610 2600 2585 2571 2553 2535 2522 2502 2484 2463 2450 2425 2392 2366 2345 2339 2324 2308 2295 2289 2275 2261 2243 2231 2212 2194 2184 2176 2165 2152 2135 2118 2105 2095 2087 2080 2071 2061 2050 2038 2027 2017 2007 1999 1989 1981 1972 1963 1953 1945 1938 1931 1923 1917 1910 1901 1894 1889 1884 1878 1868 1864 1860 1856 1852 1845 1839 1836 1835 1834 1833 1828 1824 1820 1816 1814 1813 1811 1807 1801 1796 1795 1792 1787
3650 3661 3672 3685 3697 3709 3718 3731 3752 3782 3801 3815 3827 3842 3857 3867 3883 3899 3913 3924 3938 3946 3950 3953 3955 3958 3966 3977 3989 4002 4011 4020 4031 4039 4051 4060 4069 4082 4096 4111 4124 4141 4154 4165 4178 4192 4204 4201 4189 4231 4231 4236 4214 4170 4097 4087 4056 4010 3946 3940 3926 3907 3893 3877 3866 3858 3854 3854 3854 3855 3855 3851 3846 3842 3840 3836 3829 3825 3822 3822 3822 3821 3816 3809 3802 3796 3790 3784 3776 3768 3761 3752 3743 3734 3727 3719 3714 3709 3702 3698 3695 3688 3680 3673 3666 3663 3658 3652 3648 3647 3643 3639 3637 3632 3629 3625 3623 3619 3612 3602 3598 3595 3595 3599 3601 3600 3601 3599 3572 3545 3530 3507 3492 3476 3452 3427 3411 3402 3390 3378 3367 3351 3333 3318 3301 3284 3271 3264 3256 3254 3253 3253 3254 3254 3254 3255 3255 3252 3250 3250 3250 3249 3249 3251 3249 3237 3229 3206 3178 3172 3167 3165 3165 3166 3167 3171 3176 3182 3187 3190 3194 3197 3200 3204 3205 3205 3204 3200 3195 3193 3195 3199 3201 3206 3207 3211 3216 3217 3219 3225 3232 3246 3259 3281 3301 3314 3328 3346 3360 3386 3399 3421 3460 3497 3543 3574 3603 3631 3644 3649 3650 3640 3632 3607 3596 3581 3540 3518 3494 3472 3442 3443 3417 3394 3379 3358 3355 3338 3307 3282 3265 3239 3212 3181 3144 3103 3095 3080 3076 3064 3047 3028 3013 3009 3002 2996 2990 2982 2971 2961 2956 2954 2953 2956 2961 2964 2967 2974 2979 2985 2995 3007 3022 3043 3071 3096 3120 3138 3157 3172 3182 3196 3214 3230 3250 3258 3273 3284 3286 3282 3275 3265 3255 3243 3233 3221 3203 3191 3182 3168 3150 3133 3121 3113 3098 3082 3059 3045 3032 3017 3000 2992 2981 2975 2953 2934 2918 2906 2903 2904 2907 2913 2922 2927 2935 2947 2957 2965 2963 2966 2980 3004 3025 3043 3056 3077 3105 3104 3111 3091 3072 3074 3068 3065 3065 3039 2995 2957 2917 2876 2843 2825 2798 2778 2771 2751 2742 2733 2711 2691 2663 2638 2627 2613 2598 2584 2572 2572 2569 2575 2589 2595 2600 2611 2626 2643 2655 2672 2687 2704 2716 2725 2727 2726 2723 2724 2727 2725 2721 2719 2723 2727 2732 2732 2734 2735 2728 2714 2709 2685 2684 2666 2660 2645 2624 2608 2600 2596 2574 2554 2534 2518 2500 2483 2453 2438 2431 2399 2370 2344 2336 2322 2302 2284 2276 2262 2250 2238 2225 2212 2199 2188 2177 2166 2153 2139 2128 2118 2106 2095 2085 2075 2065 2056 2045 2032 2015 2002 1996 1987 1979 1973 1965 1956 1949 1944 1936 1928 1922 1915 1907 1900 1896 1894 1884 1874 1867 1860 1857 1855 1852 1847 1843 1838 1836 1834 1832 1828 1823 1818 1815 1813 1811 1807 1803 1800 1797 1794 1790
3638 3647 3660 3673 3687 3703 3714 3721 3735 3754 3779 3795 3808 3820 3834 3849 3860 3871 3891 3904 3914 3922 3926 3929 3932 3936 3942 3953 3970 3985 4000 4012 4022 4032 4043 4054 4066 4075 4087 4104 4118 4133 4148 4162 4180 4187 4193 4190 4219 4224 4217 4215 4171 4147 4015 3987 4019 3995 3929 3920 3908 3892 3879 3862 3854 3851 3848 3847 3847 3848 3848 3847 3841 3838 3835 3831 3826 3823 3820 3820 3822 3822 3819 3813 3807 3802 3795 3785 3774 3764 3755 3748 3738 3729 3720 3714 3709 3703 3696 3692 3687 3680 3668 3658 3652 3650 3647 3642 3637 3634 3630 3629 3627 3623 3621 3618 3615 3613 3607 3604 3603 3604 3611 3615 3619 3622 3621 3620 3597 3547 3529 3515 3501 3491 3458 3430 3412 3407 3390 3382 3363 3348 3330 3312 3293 3279 3271 3262 3257 3254 3250 3250 3251 3253 3254 3254 3254 3255 3255 3257 3259 3262 3264 3263 3257 3245 3232 3210 3190 3180 3169 3165 3166 3173 3176 3179 3184 3189 3194 3196 3200 3204 3207 3209 3209 3208 3208 3206 3204 3205 3210 3216 3221 3230 3236 3236 3236 3239 3242 3250 3262 3278 3301 3323 3333 3345 3357 3370 3395 3412 3419 3453 3502 3534 3559 3586 3615 3632 3643 3646 3641 3628 3606 3597 3572 3543 3520 3496 3483 3463 3442 3438 3402 3380 3373 3367 3339 3310 3291 3270 3262 3242 3213 3184 3139 3112 3100 3079 3072 3065 3054 3039 3030 3020 3013 3007 3000 2992 2984 2976 2971 2967 2967 2968 2971 2972 2975 2980 2986 2992 3003 3013 3030 3055 3084 3113 3137 3161 3176 3187 3200 3215 3231 3251 3266 3283 3297 3309 3310 3306 3296 3274 3263 3256 3250 3236 3222 3209 3198 3183 3163 3143 3126 3117 3112 3105 3081 3061 3044 3027 3007 2998 2991 2980 2960 2943 2932 2925 2926 2926 2933 2939 2949 2957 2968 2978 2982 2990 2995 3007 3018 3039 3051 3072 3087 3107 3141 3136 3118 3107 3074 3071 3068 3068 3061 3038 3013 2996 2948 2887 2847 2824 2825 2789 2770 2761 2755 2742 2713 2682 2659 2642 2628 2615 2605 2595 2586 2585 2589 2595 2606 2610 2618 2633 2646 2664 2671 2693 2711 2735 2741 2749 2753 2758 2758 2754 2753 2749 2750 2748 2749 2751 2752 2751 2747 2741 2733 2722 2712 2696 2690 2675 2664 2652 2627 2609 2597 2589 2568 2550 2535 2511 2507 2479 2460 2435 2422 2410 2375 2345 2330 2316 2309 2274 2263 2254 2248 2237 2225 2213 2201 2191 2181 2168 2153 2143 2132 2122 2112 2101 2090 2079 2069 2060 2053 2039 2021 2006 1995 1988 1981 1973 1966 1958 1949 1944 1938 1932 1927 1920 1913 1907 1903 1894 1886 1880 1872 1866 1862 1858 1856 1853 1849 1844 1839 1834 1828 1824 1821 1819 1818 1816 1814 1810 1807 1802 1800 1798 1796
3623 3633 3644 3659 3674 3688 3702 3712 3722 3735 3750 3768 3784 3801 3817 3832 3845 3852 3860 3870 3882 3889 3894 3903 3911 3920 3929 3940 3952 3966 3985 4000 4010 4021 4034 4048 4061 4073 4086 4101 4112 4125 4140 4156 4172 4185 4185 4175 4214 4199 4186 4160 4123 4114 4080 4031 3989 3988 3908 3895 3889 3877 3867 3857 3852 3848 3845 3842 3840 3838 3837 3838 3837 3835 3834 3830 3827 3825 3824 3822 3821 3821 3819 3816 3812 3806 3797 3786 3773 3761 3753 3747 3741 3732 3721 3712 3706 3701 3696 3689 3681 3673 3664 3655 3651 3648 3644 3638 3634 3630 3629 3629 3628 3627 3625 3622 3619 3619 3617 3619 3621 3624 3629 3635 3640 3645 3639 3628 3618 3565 3572 3530 3501 3498 3439 3423 3412 3403 3395 3382 3367 3349 3326 3306 3290 3281 3271 3261 3257 3252 3250 3250 3250 3250 3252 3254 3255 3258 3263 3265 3269 3273 3274 3273 3266 3250 3224 3213 3200 3189 3179 3175 3177 3181 3186 3189 3196 3201 3207 3207 3210 3211 3213 3214 3215 3214 3216 3218 3222 3224 3228 3234 3241 3249 3252 3254 3263 3272 3289 3298 3319 3329 3341 3351 3361 3372 3382 3407 3418 3440 3458 3509 3526 3553 3576 3596 3620 3642 3651 3648 3641 3602 3588 3552 3549 3518 3504 3492 3477 3454 3449 3439 3408 3387 3392 3381 3336 3327 3324 3267 3244 3234 3201 3181 3150 3125 3109 3088 3077 3068 3059 3050 3044 3035 3027 3019 3012 3005 2999 2992 2990 2985 2982 2980 2978 2980 2984 2988 2992 2999 3010 3024 3047 3064 3099 3129 3154 3176 3188 3202 3216 3229 3246 3267 3284 3300 3316 3325 3325 3317 3306 3294 3273 3265 3260 3249 3238 3227 3215 3199 3180 3159 3142 3130 3119 3110 3101 3080 3064 3035 3019 3006 2996 2978 2967 2952 2948 2947 2949 2950 2960 2970 2979 2980 2984 2997 3004 3009 3015 3026 3038 3053 3081 3102 3128 3148 3155 3150 3142 3119 3093 3072 3072 3063 3044 3031 3012 3007 3000 2912 2869 2848 2822 2800 2776 2763 2753 2749 2719 2689 2669 2648 2637 2619 2608 2599 2596 2595 2604 2611 2620 2628 2634 2651 2664 2675 2690 2709 2735 2758 2765 2775 2779 2777 2776 2775 2774 2772 2776 2773 2770 2766 2759 2754 2753 2739 2724 2717 2708 2698 2681 2673 2662 2641 2611 2595 2585 2576 2562 2529 2514 2507 2496 2463 2446 2426 2421 2403 2371 2351 2336 2319 2295 2273 2262 2253 2244 2234 2222 2208 2198 2190 2179 2165 2152 2142 2132 2123 2112 2103 2089 2074 2065 2060 2054 2043 2029 2012 1998 1988 1979 1972 1966 1958 1951 1947 1943 1937 1930 1922 1914 1907 1901 1894 1889 1883 1878 1873 1869 1865 1863 1860 1855 1849 1842 1835 1830 1826 1824 1823 1821 1815 1811 1810 1808 1806 1804 1798 1797
3613 3623 3634 3648 3660 3672 3683 3696 3708 3721 3734 3745 3759 3776 3796 3810 3825 3834 3838 3844 3851 3859 3867 3875 3888 3903 3918 3930 3943 3953 3969 3981 3996 4008 4023 4039 4052 4067 4084 4096 4108 4118 4132 4149 4165 4179 4176 4169 4212 4194 4192 4093 4073 4011 4115 4039 3979 3910 3898 3885 3881 3872 3863 3856 3851 3847 3843 3838 3834 3831 3830 3829 3831 3830 3829 3827 3827 3827 3826 3823 3821 3820 3819 3818 3813 3805 3796 3785 3771 3759 3752 3747 3742 3735 3728 3719 3713 3707 3701 3694 3687 3678 3671 3663 3657 3652 3645 3642 3640 3638 3638 3637 3634 3635 3635 3634 3635 3641 3641 3642 3640 3647 3653 3663 3667 3670 3652 3642 3617 3596 3576 3577 3552 3498 3471 3409 3400 3400 3394 3380 3365 3351 3330 3310 3297 3286 3270 3261 3256 3252 3252 3252 3252 3253 3255 3260 3265 3272 3278 3280 3283 3284 3284 3282 3272 3251 3225 3217 3208 3200 3194 3189 3189 3191 3196 3203 3209 3212 3217 3221 3222 3222 3221 3221 3222 3222 3224 3232 3239 3244 3248 3255 3261 3268 3277 3288 3308 3323 3339 3348 3355 3367 3370 3386 3389 3406 3420 3433 3448 3465 3501 3517 3560 3575 3595 3613 3640 3660 3663 3657 3644 3607 3559 3549 3517 3508 3488 3470 3453 3448 3439 3430 3408 3369 3368 3346 3312 3269 3304 3252 3234 3217 3194 3168 3147 3127 3111 3099 3086 3075 3067 3060 3052 3043 3034 3024 3019 3012 3009 3009 3007 3005 2998 2992 2988 2988 2990 2993 2998 3008 3018 3035 3052 3080 3118 3140 3159 3175 3194 3210 3228 3247 3265 3286 3302 3315 3328 3334 3330 3325 3327 3314 3293 3282 3274 3264 3252 3241 3229 3214 3198 3179 3156 3140 3128 3120 3107 3090 3068 3044 3023 3011 2998 2973 2972 2966 2959 2966 2970 2983 2997 3018 3011 3017 3017 3022 3028 3028 3037 3042 3071 3094 3123 3136 3153 3175 3177 3160 3149 3130 3101 3071 3068 3049 3033 3020 3012 3004 2926 2879 2882 2849 2821 2802 2788 2761 2748 2748 2719 2689 2668 2664 2646 2626 2615 2607 2605 2607 2616 2622 2631 2644 2655 2672 2684 2702 2727 2747 2761 2778 2794 2797 2800 2797 2798 2799 2795 2796 2794 2790 2778 2770 2758 2757 2737 2721 2711 2705 2695 2685 2676 2663 2636 2613 2594 2579 2576 2565 2544 2513 2501 2498 2482 2453 2439 2426 2421 2399 2376 2363 2340 2315 2290 2275 2264 2255 2244 2232 2218 2204 2195 2185 2174 2162 2152 2141 2131 2121 2111 2101 2087 2074 2066 2061 2053 2043 2031 2021 2011 2000 1988 1979 1971 1961 1953 1948 1943 1937 1930 1922 1915 1907 1900 1894 1892 1888 1880 1876 1872 1869 1864 1859 1855 1852 1847 1841 1838 1836 1834 1831 1825 1818 1815 1813 1811 1809 1808 1805 1803
3605 3612 3623 3634 3646 3658 3670 3683 3697 3708 3720 3732 3744 3760 3774 3786 3796 3806 3814 3819 3824 3832 3844 3856 3869 3885 3901 3912 3926 3940 3953 3965 3977 3994 4009 4027 4045 4061 4075 4090 4102 4114 4129 4146 4160 4171 4172 4156 4124 4178 4155 4097 4040 3956 4092 4004 3918 3900 3888 3879 3875 3866 3859 3854 3849 3845 3841 3836 3831 3828 3823 3822 3822 3824 3823 3823 3824 3824 3821 3818 3816 3815 3814 3811 3805 3797 3790 3783 3773 3761 3752 3746 3742 3737 3729 3723 3718 3712 3707 3701 3697 3693 3688 3681 3672 3663 3657 3652 3651 3651 3651 3649 3647 3647 3651 3654 3657 3660 3663 3667 3676 3686 3693 3694 3693 3678 3671 3658 3642 3590 3606 3584 3555 3548 3497 3426 3403 3401 3396 3387 3372 3357 3336 3315 3301 3289 3274 3262 3257 3255 3255 3256 3256 3256 3259 3267 3277 3287 3292 3294 3295 3295 3293 3290 3281 3260 3229 3220 3214 3210 3208 3206 3205 3205 3209 3214 3220 3223 3226 3230 3230 3231 3226 3227 3226 3226 3233 3241 3251 3262 3269 3276 3289 3300 3313 3321 3333 3349 3364 3372 3382 3403 3403 3406 3416 3439 3453 3468 3479 3495 3519 3553 3593 3609 3630 3660 3680 3684 3670 3659 3640 3601 3598 3575 3555 3538 3513 3481 3455 3426 3431 3410 3404 3375 3338 3324 3327 3270 3268 3246 3229 3212 3179 3161 3149 3129 3113 3107 3100 3089 3076 3068 3059 3052 3046 3036 3031 3028 3025 3024 3021 3019 3015 3006 2999 2997 2997 3002 3011 3020 3035 3053 3078 3106 3131 3149 3164 3184 3203 3222 3244 3261 3277 3297 3312 3327 3342 3348 3347 3346 3342 3338 3327 3314 3293 3273 3255 3239 3227 3214 3202 3190 3170 3149 3134 3124 3115 3099 3074 3052 3029 3014 3000 2990 2970 2970 2974 2990 3007 3019 3033 3040 3045 3043 3030 3034 3043 3044 3053 3069 3091 3123 3145 3157 3172 3194 3187 3179 3147 3124 3099 3073 3037 3024 3021 3008 2994 2997 2950 2898 2891 2852 2825 2796 2784 2759 2746 2735 2715 2692 2667 2662 2648 2631 2622 2615 2615 2623 2634 2644 2651 2665 2683 2703 2720 2736 2755 2773 2790 2806 2823 2829 2830 2828 2831 2829 2823 2817 2807 2801 2788 2765 2757 2737 2723 2702 2692 2685 2676 2668 2661 2635 2625 2609 2600 2584 2565 2550 2524 2509 2494 2479 2461 2445 2429 2417 2409 2395 2377 2357 2332 2311 2276 2269 2261 2256 2245 2234 2219 2204 2192 2184 2175 2164 2151 2141 2132 2122 2115 2106 2094 2079 2068 2061 2053 2041 2030 2022 2016 2007 1994 1983 1974 1965 1958 1952 1947 1941 1933 1926 1919 1911 1904 1898 1893 1887 1881 1877 1876 1872 1867 1860 1857 1855 1852 1847 1843 1841 1840 1836 1830 1825 1821 1817 1813 1811 1809 1806 1804
3600 3607 3616 3625 3636 3647 3660 3673 3687 3698 3708 3719 3733 3748 3760 3769 3774 3780 3788 3797 3806 3814 3824 3837 3851 3866 3879 3898 3914 3929 3943 3954 3966 3979 3996 4018 4039 4053 4070 4087 4099 4110 4129 4143 4156 4168 4175 4134 4122 4088 4117 4080 4025 4058 3980 3973 3914 3899 3884 3875 3868 3860 3854 3849 3846 3843 3839 3835 3830 3823 3818 3815 3815 3813 3813 3814 3815 3813 3811 3807 3806 3805 3804 3800 3794 3790 3786 3782 3772 3763 3754 3747 3739 3733 3727 3721 3718 3715 3711 3707 3704 3703 3699 3694 3689 3684 3683 3678 3673 3670 3665 3661 3658 3659 3663 3667 3669 3673 3677 3687 3697 3702 3706 3703 3697 3690 3679 3659 3632 3590 3607 3584 3557 3544 3520 3437 3411 3411 3407 3391 3371 3357 3338 3325 3311 3298 3280 3270 3265 3263 3265 3267 3265 3266 3270 3280 3293 3303 3309 3310 3310 3308 3302 3296 3287 3260 3233 3222 3219 3217 3220 3224 3224 3226 3226 3229 3230 3232 3235 3237 3239 3237 3236 3232 3230 3230 3239 3253 3264 3275 3287 3299 3313 3328 3345 3354 3368 3387 3391 3408 3418 3429 3436 3442 3460 3472 3489 3502 3509 3528 3582 3610 3635 3663 3692 3699 3691 3688 3682 3662 3639 3630 3614 3603 3564 3559 3536 3488 3454 3429 3410 3405 3395 3369 3325 3307 3294 3282 3275 3246 3218 3205 3183 3160 3152 3135 3125 3118 3109 3097 3086 3079 3072 3067 3059 3050 3045 3041 3034 3028 3026 3024 3021 3016 3012 3010 3012 3019 3027 3037 3054 3075 3101 3118 3139 3157 3172 3195 3219 3235 3253 3270 3292 3312 3337 3355 3373 3378 3379 3375 3370 3367 3359 3346 3319 3293 3259 3238 3221 3208 3197 3194 3179 3166 3149 3140 3128 3111 3073 3047 3032 3017 3014 2999 2991 2997 3006 3023 3039 3051 3063 3064 3075 3090 3095 3091 3081 3080 3082 3089 3116 3148 3164 3177 3196 3203 3201 3181 3140 3112 3080 3045 3039 3013 2989 2987 2985 2955 2942 2912 2893 2847 2826 2800 2777 2763 2748 2735 2714 2685 2665 2656 2646 2636 2627 2625 2629 2639 2649 2660 2670 2685 2701 2722 2737 2759 2777 2800 2817 2830 2846 2860 2863 2863 2864 2856 2848 2830 2821 2800 2782 2757 2745 2731 2708 2689 2682 2673 2663 2649 2637 2625 2614 2604 2589 2575 2557 2541 2511 2500 2484 2466 2454 2444 2428 2413 2401 2385 2365 2341 2325 2301 2276 2269 2258 2252 2245 2235 2219 2203 2191 2183 2172 2161 2149 2138 2129 2119 2111 2103 2087 2077 2067 2057 2048 2039 2030 2022 2015 2007 1996 1986 1977 1970 1962 1955 1948 1941 1933 1927 1920 1913 1907 1901 1896 1889 1885 1879 1875 1872 1866 1861 1858 1856 1854 1849 1845 1843 1840 1836 1831 1825 1821 1817 1815 1812 1809 1806 1804
3595 3601 3609 3619 3631 3641 3651 3663 3676 3689 3699 3709 3719 3731 3742 3751 3759 3764 3769 3778 3786 3793 3800 3811 3825 3845 3864 3883 3901 3915 3927 3940 3952 3970 3991 4014 4032 4045 4057 4073 4094 4112 4129 4142 4156 4167 4169 4137 4113 4070 4018 3990 3968 3981 3927 3915 3907 3888 3876 3866 3860 3853 3848 3843 3841 3838 3836 3831 3826 3818 3811 3807 3805 3804 3802 3801 3802 3802 3802 3799 3798 3797 3795 3791 3786 3783 3781 3776 3768 3761 3753 3744 3737 3731 3726 3724 3722 3718 3714 3712 3711 3710 3708 3705 3704 3703 3702 3701 3700 3694 3687 3682 3679 3682 3684 3684 3685 3694 3698 3704 3705 3703 3703 3701 3696 3685 3672 3658 3635 3603 3605 3576 3561 3532 3510 3486 3428 3415 3412 3394 3377 3368 3350 3339 3321 3305 3295 3284 3276 3274 3274 3276 3276 3277 3286 3300 3315 3323 3327 3328 3325 3320 3315 3298 3288 3261 3236 3227 3223 3225 3228 3231 3234 3236 3239 3240 3240 3239 3241 3242 3244 3245 3247 3246 3240 3243 3248 3260 3271 3289 3303 3319 3339 3358 3371 3386 3398 3421 3431 3438 3449 3466 3477 3491 3503 3516 3521 3545 3583 3604 3623 3640 3675 3700 3707 3708 3706 3691 3679 3662 3652 3645 3630 3611 3589 3570 3559 3495 3531 3581 3461 3393 3394 3355 3329 3304 3294 3281 3269 3255 3223 3205 3186 3170 3165 3146 3130 3120 3109 3100 3092 3086 3081 3075 3067 3056 3050 3046 3039 3032 3029 3029 3025 3024 3021 3020 3022 3029 3037 3049 3067 3090 3105 3123 3147 3168 3191 3216 3236 3253 3270 3287 3312 3340 3376 3393 3403 3406 3404 3399 3396 3390 3385 3373 3352 3308 3274 3247 3227 3210 3202 3198 3192 3181 3167 3152 3134 3112 3072 3055 3037 3024 3019 3022 3024 3024 3039 3055 3068 3076 3087 3098 3115 3119 3126 3127 3123 3113 3115 3120 3142 3162 3186 3201 3214 3208 3195 3168 3139 3111 3063 3068 3063 3024 2971 2977 2968 2942 2940 2908 2872 2854 2827 2806 2782 2767 2741 2729 2710 2695 2676 2661 2654 2644 2638 2639 2647 2658 2673 2684 2699 2712 2723 2740 2760 2775 2800 2817 2837 2854 2878 2888 2892 2892 2879 2869 2856 2839 2825 2798 2772 2753 2739 2721 2699 2685 2678 2663 2644 2627 2616 2605 2598 2590 2573 2558 2541 2524 2503 2489 2476 2463 2451 2440 2425 2407 2391 2377 2356 2335 2318 2300 2285 2269 2260 2251 2244 2232 2216 2200 2189 2181 2170 2158 2145 2132 2119 2109 2099 2087 2075 2063 2054 2046 2038 2030 2026 2021 2014 2005 1995 1986 1977 1971 1964 1957 1949 1941 1935 1928 1920 1912 1905 1900 1894 1890 1887 1883 1877 1871 1867 1862 1858 1856 1854 1851 1847 1843 1838 1835 1831 1826 1822 1817 1815 1813 1810 1808 1806
3591 3596 3604 3614 3625 3635 3643 3653 3664 3674 3684 3695 3705 3715 3726 3735 3744 3752 3758 3765 3772 3778 3785 3793 3806 3827 3848 3868 3887 3900 3912 3926 3942 3958 3984 4010 4024 4036 4049 4065 4086 4106 4126 4142 4156 4165 4167 4166 4108 4052 3999 3980 3928 3928 3912 3909 3895 3885 3875 3866 3857 3850 3844 3842 3837 3833 3828 3824 3818 3810 3805 3802 3799 3798 3793 3790 3790 3788 3789 3789 3790 3789 3785 3782 3781 3780 3777 3772 3764 3759 3756 3750 3743 3735 3732 3729 3728 3726 3726 3726 3725 3722 3721 3720 3720 3721 3723 3725 3721 3717 3719 3714 3712 3708 3705 3707 3711 3716 3708 3706 3709 3703 3699 3694 3686 3670 3657 3633 3624 3598 3575 3557 3542 3528 3500 3450 3426 3421 3413 3394 3391 3377 3365 3350 3341 3324 3317 3310 3301 3292 3285 3284 3286 3293 3307 3321 3330 3336 3338 3336 3332 3324 3315 3298 3280 3263 3247 3233 3228 3229 3232 3236 3240 3244 3247 3249 3250 3250 3250 3252 3250 3255 3259 3261 3260 3262 3267 3272 3283 3300 3321 3347 3371 3387 3399 3414 3434 3452 3466 3473 3494 3500 3514 3529 3544 3567 3597 3608 3629 3634 3653 3677 3693 3701 3705 3707 3701 3691 3681 3669 3655 3645 3631 3618 3594 3569 3559 3551 3553 3531 3495 3469 3415 3325 3291 3292 3292 3280 3271 3259 3233 3211 3196 3186 3173 3160 3143 3128 3109 3102 3096 3090 3083 3075 3069 3060 3051 3045 3041 3039 3037 3037 3035 3032 3031 3030 3034 3043 3054 3063 3086 3104 3116 3126 3156 3180 3207 3231 3247 3266 3289 3315 3341 3381 3400 3412 3417 3422 3420 3418 3415 3411 3402 3390 3373 3345 3276 3259 3236 3224 3211 3197 3189 3177 3164 3152 3131 3110 3089 3066 3053 3034 3030 3029 3038 3051 3065 3075 3083 3091 3108 3128 3139 3150 3156 3153 3149 3145 3144 3149 3164 3183 3206 3234 3237 3215 3200 3171 3143 3098 3091 3069 3035 3017 3013 2955 2958 2957 2913 2890 2877 2850 2827 2812 2781 2763 2740 2729 2715 2703 2680 2674 2662 2666 2664 2668 2669 2677 2689 2705 2723 2737 2750 2760 2776 2804 2815 2837 2861 2883 2896 2906 2910 2900 2895 2877 2864 2837 2818 2788 2769 2750 2727 2708 2693 2682 2670 2658 2632 2618 2600 2590 2577 2568 2551 2544 2533 2517 2504 2486 2472 2458 2445 2430 2414 2395 2382 2372 2356 2336 2316 2300 2284 2272 2260 2253 2243 2230 2209 2196 2187 2178 2167 2151 2136 2115 2103 2089 2080 2069 2057 2046 2042 2039 2035 2028 2022 2016 2010 2003 1996 1989 1980 1972 1963 1955 1947 1942 1937 1929 1923 1915 1909 1903 1896 1891 1888 1886 1880 1875 1869 1864 1859 1855 1853 1852 1850 1844 1839 1835 1833 1828 1822 1818 1815 1813 1812 1811 1809
3588 3594 3600 3608 3618 3627 3635 3642 3650 3661 3672 3683 3695 3703 3713 3721 3731 3738 3746 3752 3759 3765 3772 3780 3795 3815 3831 3850 3874 3891 3904 3919 3937 3954 3979 4003 4017 4030 4043 4059 4078 4101 4118 4138 4158 4165 4163 4159 4091 4045 3985 3981 3925 3915 3906 3894 3893 3887 3876 3866 3855 3845 3837 3832 3826 3820 3816 3811 3808 3802 3799 3796 3793 3788 3783 3780 3780 3780 3780 3781 3781 3780 3777 3776 3775 3777 3776 3771 3766 3763 3760 3757 3753 3748 3743 3740 3740 3742 3745 3750 3754 3744 3747 3742 3744 3750 3747 3753 3749 3748 3743 3731 3724 3723 3726 3725 3725 3720 3715 3705 3696 3691 3680 3675 3661 3643 3632 3621 3594 3582 3550 3539 3524 3491 3464 3442 3432 3421 3415 3407 3392 3387 3381 3365 3361 3353 3345 3337 3324 3313 3305 3302 3306 3315 3326 3336 3342 3346 3346 3341 3337 3326 3309 3290 3275 3260 3249 3240 3238 3239 3241 3245 3246 3249 3255 3259 3262 3265 3266 3266 3263 3267 3273 3278 3282 3286 3288 3297 3310 3333 3358 3377 3393 3406 3421 3439 3457 3475 3493 3506 3524 3540 3552 3570 3592 3615 3637 3645 3656 3672 3686 3697 3703 3705 3702 3698 3691 3683 3675 3650 3644 3639 3623 3608 3586 3565 3569 3552 3533 3509 3481 3463 3368 3376 3289 3349 3284 3276 3270 3265 3240 3220 3207 3194 3190 3172 3153 3137 3121 3110 3100 3092 3085 3077 3070 3061 3053 3048 3046 3044 3042 3041 3043 3044 3045 3047 3052 3062 3071 3083 3098 3111 3121 3144 3176 3199 3220 3244 3259 3280 3307 3335 3367 3388 3405 3419 3432 3438 3437 3433 3428 3423 3416 3407 3394 3367 3344 3278 3263 3227 3214 3198 3187 3178 3169 3158 3138 3118 3101 3084 3069 3057 3053 3055 3062 3071 3082 3089 3099 3118 3144 3163 3178 3188 3191 3189 3186 3176 3178 3179 3199 3217 3246 3250 3247 3242 3205 3181 3132 3111 3089 3074 3045 3041 3019 3005 2951 2922 2891 2876 2859 2840 2821 2805 2777 2762 2745 2720 2713 2706 2696 2685 2688 2690 2691 2699 2701 2708 2722 2731 2746 2761 2772 2785 2802 2820 2837 2857 2877 2895 2911 2918 2920 2917 2901 2878 2863 2841 2810 2784 2762 2737 2712 2687 2676 2669 2658 2645 2617 2609 2594 2580 2563 2551 2540 2533 2524 2506 2490 2479 2468 2454 2439 2415 2398 2385 2375 2364 2349 2335 2315 2300 2284 2273 2264 2253 2236 2219 2205 2193 2184 2172 2159 2144 2126 2104 2092 2078 2069 2060 2052 2043 2037 2030 2026 2023 2017 2013 2008 2003 1997 1990 1982 1974 1965 1955 1948 1942 1938 1932 1924 1918 1911 1904 1898 1893 1889 1886 1882 1876 1871 1866 1862 1857 1854 1853 1852 1846 1841 1836 1833 1829 1824 1821 1816 1816 1815 1814 1813
3586 3592 3597 3603 3610 3619 3628 3636 3642 3651 3661 3670 3681 3691 3700 3710 3719 3729 3737 3745 3753 3760 3768 3778 3788 3805 3818 3836 3859 3883 3902 3918 3937 3953 3971 3990 4010 4024 4038 4052 4071 4092 4111 4139 4157 4166 4161 4136 4084 4043 3985 3957 3927 3901 3897 3892 3894 3891 3879 3867 3856 3842 3830 3821 3817 3813 3810 3803 3799 3796 3794 3791 3787 3783 3778 3774 3771 3770 3770 3770 3770 3771 3772 3773 3775 3777 3776 3775 3772 3768 3766 3764 3761 3758 3756 3757 3757 3762 3771 3780 3791 3789 3786 3782 3778 3778 3766 3761 3761 3754 3746 3735 3729 3723 3716 3724 3727 3708 3693 3668 3660 3623 3616 3618 3615 3610 3600 3588 3574 3557 3551 3542 3525 3494 3468 3458 3440 3433 3424 3417 3403 3399 3399 3403 3399 3388 3381 3365 3350 3337 3328 3325 3331 3337 3345 3350 3353 3353 3349 3344 3335 3323 3307 3289 3272 3264 3256 3248 3244 3246 3250 3255 3259 3262 3270 3273 3276 3282 3284 3281 3284 3285 3290 3296 3299 3307 3319 3332 3352 3370 3384 3398 3413 3427 3444 3463 3479 3505 3513 3530 3546 3569 3596 3608 3636 3657 3668 3674 3690 3700 3707 3709 3708 3704 3695 3688 3680 3669 3656 3644 3617 3624 3616 3604 3580 3559 3541 3533 3511 3498 3475 3452 3424 3399 3391 3367 3333 3272 3264 3261 3246 3241 3214 3203 3197 3184 3166 3143 3129 3116 3106 3099 3091 3081 3071 3063 3058 3053 3049 3051 3051 3052 3053 3055 3056 3059 3066 3078 3089 3099 3110 3117 3137 3168 3195 3220 3246 3269 3282 3302 3325 3347 3370 3394 3416 3438 3453 3458 3455 3445 3441 3435 3430 3411 3387 3371 3340 3299 3262 3245 3222 3209 3197 3186 3175 3162 3141 3123 3112 3104 3092 3081 3075 3077 3085 3087 3093 3104 3121 3152 3179 3206 3217 3228 3225 3215 3202 3198 3198 3204 3236 3268 3264 3263 3251 3241 3208 3189 3127 3116 3104 3083 3065 3044 3025 3006 2963 2905 2887 2875 2843 2824 2814 2793 2774 2762 2755 2741 2724 2717 2705 2708 2713 2719 2727 2734 2746 2759 2765 2764 2766 2779 2794 2810 2824 2838 2856 2870 2893 2912 2929 2929 2929 2923 2891 2866 2848 2833 2800 2779 2759 2719 2694 2679 2669 2663 2646 2629 2614 2602 2587 2567 2548 2540 2531 2525 2510 2492 2477 2464 2454 2443 2424 2404 2391 2382 2371 2355 2342 2329 2308 2293 2283 2276 2269 2253 2231 2211 2201 2191 2180 2167 2155 2139 2123 2100 2087 2078 2072 2067 2060 2051 2044 2034 2028 2024 2019 2012 2007 2001 1993 1986 1979 1972 1965 1959 1952 1946 1941 1935 1927 1919 1911 1905 1898 1893 1890 1887 1884 1878 1874 1870 1863 1856 1853 1852 1853 1850 1846 1841 1837 1833 1829 1826 1823 1821 1818 1818 1818
3589 3593 3598 3604 3609 3617 3627 3633 3638 3645 3652 3661 3671 3679 3688 3700 3713 3723 3733 3741 3750 3759 3766 3775 3784 3799 3813 3826 3845 3872 3898 3917 3934 3951 3968 3985 4002 4022 4039 4055 4076 4096 4116 4145 4160 4160 4158 4128 4082 4041 3987 3954 3925 3897 3896 3890 3894 3885 3876 3864 3852 3839 3830 3822 3820 3816 3815 3806 3799 3796 3791 3786 3781 3777 3773 3770 3766 3763 3761 3762 3763 3765 3768 3771 3774 3776 3775 3773 3771 3770 3769 3768 3769 3770 3772 3778 3787 3798 3805 3809 3806 3804 3805 3802 3801 3784 3772 3761 3763 3746 3736 3736 3710 3699 3687 3690 3682 3660 3632 3616 3612 3602 3593 3590 3587 3580 3577 3569 3557 3548 3540 3530 3516 3505 3488 3475 3460 3447 3438 3429 3428 3426 3426 3424 3416 3408 3398 3381 3368 3356 3350 3347 3349 3353 3358 3359 3358 3353 3348 3342 3335 3325 3307 3288 3278 3272 3264 3261 3253 3256 3262 3270 3278 3279 3285 3292 3294 3295 3299 3299 3301 3302 3306 3311 3316 3327 3341 3356 3373 3388 3400 3413 3435 3457 3473 3486 3508 3528 3543 3555 3583 3611 3640 3656 3675 3700 3701 3708 3711 3712 3711 3710 3708 3701 3690 3677 3668 3656 3643 3633 3625 3616 3609 3590 3564 3545 3524 3509 3498 3486 3464 3441 3414 3385 3397 3362 3324 3283 3258 3252 3246 3239 3220 3210 3197 3184 3171 3156 3141 3130 3118 3108 3098 3088 3080 3073 3069 3067 3064 3063 3060 3063 3064 3068 3071 3075 3083 3092 3106 3113 3121 3129 3155 3186 3211 3236 3266 3287 3302 3322 3341 3358 3380 3416 3443 3466 3475 3469 3463 3451 3450 3444 3438 3411 3398 3366 3342 3307 3291 3261 3242 3227 3216 3204 3189 3174 3152 3137 3128 3120 3109 3097 3091 3094 3096 3101 3113 3136 3163 3195 3216 3235 3253 3256 3255 3251 3239 3235 3233 3254 3266 3279 3272 3264 3253 3241 3211 3183 3133 3124 3110 3103 3088 3044 3017 2999 2951 2893 2871 2857 2837 2819 2802 2793 2775 2767 2768 2759 2745 2732 2734 2734 2743 2748 2755 2765 2781 2791 2789 2786 2785 2792 2804 2821 2835 2858 2879 2896 2915 2930 2951 2951 2941 2922 2897 2866 2853 2822 2799 2789 2767 2721 2699 2678 2660 2653 2633 2623 2614 2607 2590 2567 2545 2532 2520 2510 2495 2483 2468 2455 2443 2430 2415 2401 2386 2371 2355 2343 2331 2317 2301 2287 2280 2273 2266 2244 2226 2210 2198 2187 2178 2166 2152 2134 2120 2109 2097 2088 2082 2076 2067 2058 2048 2040 2033 2026 2019 2014 2010 2004 1998 1988 1979 1972 1965 1959 1951 1944 1940 1936 1928 1923 1917 1911 1904 1898 1893 1889 1885 1878 1875 1873 1868 1859 1856 1855 1855 1855 1852 1847 1843 1836 1832 1830 1829 1828 1823 1821 1820
3592 3596 3600 3605 3614 3622 3629 3635 3637 3642 3647 3654 3661 3670 3680 3691 3704 3717 3727 3736 3745 3753 3762 3770 3779 3792 3807 3821 3834 3864 3888 3908 3926 3946 3966 3984 3998 4018 4039 4061 4079 4098 4118 4140 4159 4162 4154 4127 4089 4062 3996 3958 3925 3905 3897 3894 3888 3884 3874 3862 3848 3839 3832 3827 3822 3819 3815 3806 3798 3794 3789 3784 3778 3772 3769 3765 3759 3755 3754 3756 3760 3762 3765 3770 3775 3778 3775 3771 3770 3772 3776 3779 3782 3789 3800 3815 3828 3832 3839 3836 3831 3827 3821 3816 3807 3794 3774 3757 3740 3726 3716 3690 3677 3670 3658 3649 3641 3629 3612 3602 3596 3588 3581 3578 3571 3563 3557 3551 3545 3537 3530 3522 3511 3503 3495 3486 3475 3465 3459 3456 3452 3449 3445 3441 3436 3429 3410 3399 3385 3374 3369 3364 3367 3368 3368 3367 3364 3358 3351 3345 3337 3327 3312 3299 3291 3285 3280 3275 3271 3275 3282 3292 3295 3299 3304 3309 3312 3311 3315 3315 3313 3315 3316 3323 3336 3345 3356 3367 3383 3400 3419 3442 3465 3478 3491 3509 3526 3549 3567 3588 3613 3635 3661 3682 3701 3712 3718 3720 3719 3715 3711 3708 3704 3695 3684 3671 3658 3647 3635 3624 3615 3597 3585 3573 3552 3530 3506 3504 3488 3475 3449 3430 3414 3418 3378 3346 3318 3271 3257 3250 3235 3229 3218 3206 3196 3187 3176 3162 3147 3137 3126 3114 3104 3097 3093 3088 3087 3087 3084 3081 3078 3075 3074 3077 3084 3089 3097 3105 3112 3119 3130 3146 3175 3202 3221 3246 3274 3303 3322 3343 3357 3374 3416 3445 3470 3495 3497 3490 3473 3456 3450 3440 3436 3418 3398 3375 3337 3326 3308 3295 3284 3258 3244 3230 3215 3187 3169 3157 3148 3140 3129 3117 3106 3109 3116 3126 3145 3170 3191 3210 3237 3266 3272 3273 3276 3272 3273 3267 3286 3288 3279 3282 3283 3267 3257 3216 3187 3156 3150 3128 3112 3084 3047 3032 2979 2933 2892 2885 2870 2852 2843 2823 2804 2801 2789 2780 2779 2770 2758 2761 2764 2766 2772 2778 2788 2797 2816 2821 2816 2816 2814 2817 2825 2839 2857 2880 2904 2924 2944 2958 2969 2965 2952 2929 2910 2879 2848 2829 2809 2797 2783 2744 2713 2689 2657 2652 2628 2619 2608 2601 2584 2562 2544 2530 2512 2495 2479 2468 2457 2450 2440 2422 2411 2399 2383 2365 2351 2338 2329 2318 2302 2285 2276 2265 2255 2243 2227 2214 2201 2184 2170 2158 2146 2132 2123 2114 2106 2097 2089 2081 2075 2065 2054 2044 2033 2024 2016 2011 2007 2003 1997 1989 1980 1972 1966 1960 1953 1945 1939 1933 1929 1924 1921 1917 1912 1906 1898 1890 1885 1883 1879 1878 1870 1863 1860 1857 1856 1854 1852 1847 1843 1837 1833 1830 1829 1829 1826 1824 1821
3595 3601 3607 3615 3621 3627 3631 3634 3635 3638 3643 3649 3657 3666 3677 3687 3699 3710 3720 3730 3740 3749 3759 3766 3775 3788 3803 3817 3834 3863 3894 3910 3926 3945 3964 3983 3998 4017 4039 4061 4077 4094 4115 4133 4151 4155 4153 4125 4084 4061 4007 3954 3935 3916 3908 3889 3883 3874 3869 3859 3845 3839 3835 3834 3831 3827 3820 3812 3803 3797 3791 3784 3775 3768 3764 3760 3755 3752 3751 3753 3758 3763 3767 3771 3775 3777 3776 3776 3777 3784 3792 3798 3809 3825 3843 3854 3857 3857 3849 3849 3839 3833 3825 3821 3812 3788 3766 3736 3718 3695 3685 3679 3666 3656 3647 3636 3628 3615 3604 3595 3589 3586 3579 3568 3557 3552 3548 3547 3543 3538 3534 3524 3518 3512 3504 3498 3493 3491 3486 3480 3474 3468 3464 3459 3445 3432 3425 3404 3393 3385 3379 3376 3375 3374 3373 3370 3368 3364 3360 3356 3348 3339 3326 3313 3304 3298 3295 3299 3296 3298 3304 3310 3314 3317 3321 3322 3325 3324 3325 3329 3330 3332 3333 3340 3353 3362 3370 3379 3395 3420 3448 3471 3487 3497 3508 3532 3547 3564 3580 3600 3620 3641 3669 3695 3716 3724 3727 3726 3721 3711 3705 3702 3695 3687 3676 3665 3655 3639 3628 3612 3598 3590 3577 3556 3522 3518 3499 3481 3479 3463 3442 3428 3403 3388 3358 3340 3318 3293 3264 3253 3237 3224 3211 3200 3189 3181 3172 3161 3149 3142 3132 3121 3113 3107 3105 3100 3095 3091 3088 3085 3083 3082 3083 3091 3098 3106 3113 3117 3123 3131 3146 3166 3189 3208 3225 3251 3280 3310 3331 3351 3368 3393 3436 3465 3512 3515 3513 3512 3489 3481 3457 3453 3449 3431 3413 3386 3358 3338 3327 3312 3299 3289 3277 3251 3232 3210 3194 3179 3168 3161 3153 3142 3134 3131 3138 3147 3162 3183 3207 3224 3260 3275 3287 3294 3301 3306 3310 3319 3323 3311 3298 3289 3279 3259 3220 3200 3167 3148 3138 3116 3084 3053 3016 2990 2910 2891 2887 2874 2866 2857 2841 2822 2817 2806 2793 2792 2787 2779 2786 2794 2798 2791 2799 2813 2827 2842 2845 2847 2849 2851 2851 2861 2859 2869 2883 2906 2931 2956 2968 2980 2988 2985 2964 2941 2923 2878 2851 2829 2816 2799 2790 2759 2714 2698 2671 2649 2629 2618 2603 2592 2573 2550 2533 2518 2502 2486 2475 2463 2451 2442 2433 2419 2404 2392 2376 2358 2342 2332 2324 2315 2305 2287 2271 2258 2247 2234 2223 2211 2199 2181 2168 2160 2148 2135 2124 2118 2113 2104 2094 2086 2079 2071 2061 2049 2037 2026 2016 2010 2004 1998 1994 1989 1982 1973 1965 1960 1955 1949 1943 1938 1931 1926 1921 1914 1909 1903 1896 1890 1885 1883 1880 1876 1869 1863 1859 1857 1856 1854 1851 1847 1842 1838 1832 1831 1831 1831 1829 1826 1824
3610 3614 3617 3621 3625 3630 3634 3635 3637 3639 3643 3649 3656 3664 3674 3685 3694 3704 3715 3724 3734 3744 3754 3763 3772 3785 3799 3813 3831 3858 3891 3910 3929 3944 3968 3987 4003 4017 4038 4058 4075 4092 4115 4135 4148 4154 4153 4147 4089 4063 4013 3973 3958 3940 3920 3904 3884 3871 3862 3856 3843 3837 3833 3833 3833 3830 3821 3813 3804 3795 3786 3778 3769 3763 3758 3754 3751 3749 3749 3750 3752 3757 3762 3768 3774 3777 3780 3784 3789 3802 3813 3826 3843 3855 3867 3869 3869 3865 3859 3853 3842 3831 3823 3812 3794 3777 3759 3721 3694 3682 3676 3661 3653 3645 3636 3628 3619 3611 3601 3596 3593 3589 3584 3572 3561 3556 3552 3550 3544 3540 3534 3530 3524 3517 3511 3504 3500 3496 3485 3480 3475 3475 3470 3461 3452 3435 3425 3412 3402 3395 3391 3387 3383 3377 3374 3372 3371 3371 3368 3366 3359 3350 3337 3325 3317 3317 3320 3322 3321 3320 3320 3326 3331 3332 3337 3339 3339 3339 3340 3346 3353 3352 3357 3361 3369 3379 3383 3393 3413 3440 3467 3490 3496 3513 3532 3543 3556 3576 3589 3625 3634 3657 3683 3711 3721 3727 3727 3721 3713 3703 3697 3691 3685 3679 3670 3657 3646 3631 3613 3596 3582 3570 3560 3542 3524 3508 3498 3488 3461 3441 3428 3416 3393 3375 3353 3337 3318 3296 3279 3259 3242 3223 3213 3202 3191 3182 3174 3168 3159 3149 3139 3128 3117 3112 3109 3104 3098 3094 3091 3087 3089 3092 3099 3106 3112 3120 3127 3135 3142 3149 3160 3176 3194 3202 3224 3252 3287 3312 3330 3348 3378 3422 3469 3505 3520 3524 3529 3532 3516 3508 3491 3480 3462 3445 3433 3411 3383 3352 3336 3334 3316 3304 3296 3275 3249 3229 3214 3206 3199 3189 3183 3171 3162 3156 3159 3164 3176 3195 3219 3252 3276 3297 3313 3331 3337 3343 3345 3349 3345 3330 3310 3304 3277 3221 3196 3170 3141 3110 3102 3085 3059 3030 2988 2944 2904 2889 2882 2873 2866 2853 2843 2830 2823 2821 2810 2800 2799 2801 2808 2817 2825 2820 2829 2844 2858 2865 2866 2863 2876 2881 2891 2884 2886 2893 2903 2919 2950 2973 2986 2997 2997 2994 2988 2951 2913 2881 2859 2834 2817 2798 2780 2759 2723 2692 2672 2652 2633 2618 2603 2589 2566 2539 2523 2509 2496 2483 2471 2461 2448 2437 2425 2412 2394 2382 2370 2359 2345 2328 2318 2310 2301 2286 2267 2255 2241 2229 2219 2208 2196 2184 2175 2168 2158 2144 2131 2123 2117 2108 2097 2088 2081 2074 2064 2054 2044 2035 2022 2012 2004 1996 1990 1985 1979 1972 1966 1960 1953 1947 1944 1938 1932 1926 1922 1916 1909 1902 1893 1887 1884 1883 1880 1875 1867 1861 1858 1856 1854 1852 1852 1848 1844 1838 1833 1831 1830 1831 1831 1829 1827
3618 3620 3623 3628 3633 3637 3639 3639 3639 3642 3646 3651 3658 3665 3674 3682 3690 3699 3708 3719 3728 3740 3752 3762 3773 3786 3800 3814 3830 3856 3884 3910 3927 3947 3971 3991 4007 4022 4037 4058 4077 4093 4113 4134 4147 4155 4160 4151 4067 4041 4023 4005 3971 3955 3937 3914 3892 3866 3862 3856 3849 3840 3835 3834 3831 3828 3820 3813 3800 3791 3782 3774 3765 3758 3753 3750 3748 3748 3748 3747 3748 3752 3757 3763 3768 3772 3775 3783 3795 3812 3823 3837 3853 3866 3873 3880 3876 3871 3858 3845 3836 3824 3808 3791 3785 3766 3737 3707 3687 3673 3666 3657 3650 3644 3636 3629 3621 3613 3608 3605 3598 3594 3587 3577 3569 3564 3560 3556 3551 3546 3538 3530 3523 3513 3502 3492 3487 3484 3481 3477 3472 3463 3458 3450 3441 3432 3423 3415 3409 3403 3398 3390 3384 3379 3378 3379 3380 3381 3377 3372 3368 3359 3352 3345 3342 3343 3347 3351 3353 3350 3349 3352 3353 3355 3360 3361 3359 3359 3358 3362 3367 3369 3373 3381 3386 3396 3401 3420 3438 3457 3475 3492 3510 3528 3548 3562 3578 3591 3624 3642 3653 3678 3703 3721 3726 3726 3723 3713 3704 3699 3693 3687 3678 3668 3655 3644 3635 3624 3605 3587 3573 3561 3541 3530 3511 3497 3486 3475 3455 3434 3419 3404 3385 3368 3349 3330 3313 3297 3281 3259 3243 3227 3209 3197 3191 3184 3176 3168 3160 3150 3138 3127 3116 3110 3108 3104 3103 3103 3103 3103 3106 3111 3115 3119 3122 3128 3136 3147 3157 3165 3174 3198 3201 3217 3250 3273 3302 3319 3338 3353 3407 3438 3471 3500 3520 3535 3549 3548 3547 3538 3512 3495 3498 3467 3465 3434 3414 3381 3358 3340 3336 3319 3298 3277 3260 3244 3235 3230 3223 3214 3207 3192 3181 3177 3177 3184 3189 3204 3231 3261 3293 3310 3339 3355 3360 3361 3362 3358 3351 3344 3305 3279 3238 3198 3161 3135 3109 3090 3058 3043 3027 3003 2970 2904 2894 2885 2875 2868 2861 2850 2848 2838 2834 2822 2820 2821 2823 2829 2836 2839 2845 2851 2861 2871 2880 2888 2892 2900 2908 2909 2916 2915 2915 2915 2925 2949 2970 2991 3002 3013 3015 3006 2990 2973 2928 2906 2866 2843 2817 2785 2766 2746 2724 2692 2668 2659 2637 2623 2605 2581 2554 2537 2521 2509 2495 2480 2468 2455 2441 2427 2413 2400 2387 2373 2364 2353 2338 2323 2311 2303 2293 2279 2265 2253 2240 2227 2216 2205 2195 2188 2180 2175 2167 2156 2142 2132 2123 2111 2097 2088 2081 2074 2063 2052 2044 2035 2024 2012 2002 1995 1990 1985 1981 1977 1970 1963 1955 1949 1943 1938 1932 1926 1920 1915 1910 1903 1895 1887 1883 1881 1879 1876 1871 1865 1861 1858 1855 1852 1849 1847 1844 1840 1834 1831 1830 1831 1833 1832 1830
3625 3629 3634 3638 3641 3643 3643 3642 3642 3644 3648 3653 3659 3666 3674 3682 3688 3696 3705 3714 3724 3736 3747 3758 3769 3783 3797 3812 3829 3855 3886 3908 3925 3947 3970 3988 4003 4019 4033 4058 4074 4091 4106 4128 4144 4154 4162 4163 4064 4039 4036 4010 4012 3968 3935 3918 3911 3885 3867 3859 3856 3845 3838 3835 3831 3828 3821 3812 3803 3791 3782 3772 3759 3751 3747 3744 3744 3743 3743 3743 3745 3748 3752 3757 3763 3768 3770 3777 3786 3806 3829 3859 3865 3873 3873 3878 3873 3862 3845 3833 3822 3812 3797 3781 3767 3753 3713 3700 3684 3673 3669 3660 3654 3647 3641 3634 3627 3619 3616 3610 3606 3599 3593 3589 3582 3577 3570 3561 3551 3538 3529 3518 3505 3491 3482 3477 3473 3470 3467 3465 3461 3454 3449 3441 3434 3428 3423 3418 3412 3408 3405 3401 3398 3394 3392 3392 3391 3388 3385 3381 3378 3375 3372 3371 3369 3363 3363 3365 3373 3375 3377 3379 3379 3385 3388 3392 3387 3384 3381 3380 3378 3380 3389 3397 3405 3412 3428 3444 3460 3471 3487 3505 3523 3551 3567 3585 3606 3621 3636 3658 3679 3702 3715 3722 3725 3724 3719 3713 3703 3695 3686 3678 3671 3664 3645 3640 3626 3620 3606 3587 3569 3554 3539 3518 3500 3490 3477 3467 3457 3434 3412 3398 3377 3358 3339 3319 3305 3286 3270 3260 3242 3225 3212 3203 3195 3186 3176 3166 3157 3145 3133 3122 3115 3111 3106 3107 3108 3111 3115 3119 3123 3125 3128 3133 3138 3144 3154 3163 3175 3182 3196 3210 3234 3253 3276 3297 3320 3336 3351 3375 3420 3447 3468 3495 3513 3544 3562 3566 3571 3569 3536 3522 3497 3492 3472 3465 3430 3403 3377 3361 3348 3329 3312 3291 3276 3262 3252 3248 3241 3231 3221 3206 3198 3191 3192 3199 3207 3224 3245 3271 3311 3339 3357 3366 3375 3373 3371 3365 3338 3312 3286 3240 3191 3161 3135 3114 3097 3064 3037 3018 2981 2959 2929 2909 2895 2891 2883 2870 2864 2857 2850 2846 2846 2845 2848 2854 2853 2856 2855 2860 2868 2877 2885 2895 2901 2914 2923 2925 2942 2946 2939 2932 2936 2933 2950 2976 2998 3017 3024 3025 3023 3008 2982 2973 2936 2906 2872 2835 2813 2783 2772 2751 2725 2707 2682 2651 2643 2624 2607 2580 2549 2537 2522 2511 2497 2477 2463 2449 2435 2422 2409 2397 2388 2377 2366 2353 2338 2325 2313 2302 2292 2278 2266 2256 2245 2234 2224 2213 2202 2191 2183 2177 2170 2161 2150 2136 2125 2111 2098 2092 2086 2078 2069 2060 2051 2041 2027 2013 1998 1989 1985 1981 1978 1975 1970 1962 1952 1945 1938 1932 1928 1923 1920 1916 1912 1905 1895 1888 1885 1882 1878 1876 1875 1872 1866 1864 1861 1859 1856 1853 1849 1843 1838 1835 1834 1834 1833 1832 1832
3636 3638 3641 3643 3642 3643 3644 3644 3643 3646 3650 3654 3659 3666 3673 3680 3687 3695 3704 3712 3721 3730 3740 3752 3765 3780 3795 3812 3836 3866 3889 3913 3932 3950 3966 3984 4001 4017 4032 4051 4070 4087 4104 4122 4139 4148 4159 4159 4100 4047 4042 4024 4012 3994 3943 3923 3907 3891 3889 3882 3866 3856 3846 3837 3833 3827 3822 3815 3809 3801 3788 3772 3757 3746 3741 3739 3739 3739 3739 3739 3741 3743 3745 3748 3754 3758 3763 3771 3782 3803 3830 3852 3864 3871 3873 3867 3857 3847 3834 3824 3814 3803 3791 3777 3754 3713 3710 3696 3690 3682 3674 3667 3659 3653 3650 3647 3642 3636 3628 3620 3611 3602 3595 3589 3584 3580 3575 3564 3547 3534 3522 3509 3493 3480 3475 3473 3472 3469 3466 3462 3458 3452 3447 3440 3433 3429 3424 3421 3420 3418 3417 3417 3417 3414 3410 3409 3404 3399 3397 3396 3396 3396 3396 3394 3391 3385 3384 3387 3392 3397 3409 3405 3405 3408 3417 3418 3408 3402 3407 3404 3407 3405 3408 3419 3426 3436 3449 3464 3477 3489 3507 3530 3556 3573 3592 3617 3636 3656 3677 3691 3703 3715 3721 3725 3725 3722 3716 3708 3697 3686 3679 3673 3667 3662 3651 3641 3630 3620 3608 3591 3570 3561 3540 3512 3497 3488 3471 3460 3440 3427 3410 3389 3368 3351 3331 3313 3298 3282 3269 3261 3248 3236 3222 3212 3200 3186 3174 3161 3152 3140 3128 3119 3114 3110 3108 3111 3116 3122 3127 3132 3140 3143 3148 3153 3158 3166 3178 3189 3197 3208 3223 3249 3265 3284 3304 3321 3338 3358 3377 3398 3427 3461 3479 3497 3524 3566 3579 3586 3590 3595 3575 3553 3522 3500 3491 3465 3453 3404 3396 3377 3362 3342 3326 3307 3293 3286 3279 3269 3258 3245 3235 3223 3217 3209 3212 3216 3228 3238 3260 3287 3319 3346 3364 3371 3376 3376 3368 3325 3298 3278 3238 3190 3163 3142 3121 3095 3074 3045 3020 3001 2986 2961 2931 2920 2912 2901 2890 2882 2874 2869 2868 2866 2866 2865 2865 2869 2874 2873 2877 2882 2896 2908 2912 2916 2925 2930 2963 2967 2974 2971 2971 2964 2960 2967 2988 3016 3028 3041 3046 3036 3032 3016 2988 2963 2936 2922 2877 2846 2811 2800 2778 2755 2739 2715 2684 2658 2648 2630 2607 2581 2565 2546 2531 2521 2506 2491 2473 2456 2437 2421 2413 2401 2389 2379 2367 2353 2340 2327 2312 2303 2291 2278 2266 2258 2248 2238 2227 2216 2207 2200 2190 2181 2173 2162 2150 2137 2126 2113 2105 2098 2091 2082 2071 2063 2055 2045 2034 2023 2010 1998 1988 1980 1976 1974 1969 1963 1954 1946 1938 1930 1924 1919 1916 1913 1909 1903 1893 1885 1882 1879 1877 1877 1878 1877 1873 1869 1866 1864 1861 1856 1852 1848 1844 1842 1841 1839 1834 1831 1832
3635 3637 3638 3639 3639 3639 3641 3643 3645 3648 3652 3656 3660 3665 3669 3675 3684 3692 3702 3711 3722 3733 3744 3755 3768 3784 3801 3824 3844 3871 3891 3912 3931 3946 3959 3975 3993 4007 4022 4039 4059 4077 4092 4111 4128 4145 4153 4164 4118 4062 4068 4039 4024 3992 3967 3947 3924 3904 3897 3889 3877 3863 3852 3843 3838 3831 3825 3818 3809 3801 3790 3776 3760 3747 3738 3736 3737 3736 3736 3737 3739 3740 3740 3741 3746 3751 3756 3765 3775 3790 3812 3835 3849 3860 3859 3851 3839 3832 3818 3806 3794 3788 3775 3747 3721 3716 3707 3698 3692 3688 3680 3673 3667 3661 3657 3654 3649 3643 3636 3630 3619 3608 3599 3593 3590 3585 3575 3560 3546 3527 3513 3501 3490 3483 3480 3479 3480 3477 3472 3467 3459 3453 3448 3443 3438 3436 3432 3430 3431 3433 3431 3432 3433 3431 3428 3424 3420 3414 3412 3415 3416 3416 3417 3417 3416 3416 3411 3418 3420 3430 3436 3433 3435 3435 3443 3444 3430 3424 3430 3429 3430 3430 3431 3437 3441 3452 3463 3476 3492 3510 3532 3557 3575 3592 3614 3640 3665 3687 3705 3713 3720 3724 3726 3726 3722 3717 3710 3701 3687 3677 3672 3669 3666 3660 3652 3643 3632 3619 3605 3594 3581 3566 3547 3526 3505 3493 3477 3463 3443 3427 3402 3379 3361 3348 3330 3312 3296 3282 3271 3262 3252 3240 3228 3216 3204 3191 3178 3167 3159 3146 3133 3122 3114 3111 3111 3117 3122 3128 3134 3140 3146 3154 3162 3172 3180 3190 3200 3209 3217 3236 3259 3277 3291 3305 3323 3339 3357 3381 3403 3418 3443 3479 3499 3528 3559 3587 3595 3603 3606 3613 3602 3579 3565 3522 3499 3476 3463 3425 3408 3391 3362 3355 3343 3329 3315 3309 3301 3285 3268 3258 3248 3242 3236 3232 3233 3238 3252 3265 3285 3316 3332 3353 3362 3366 3360 3341 3326 3292 3261 3234 3206 3159 3137 3108 3097 3082 3060 3036 3018 2994 2976 2954 2945 2936 2924 2912 2901 2896 2892 2890 2887 2885 2886 2884 2888 2900 2903 2909 2909 2916 2916 2922 2938 2948 2954 2974 2987 3004 3012 3013 3014 3014 3035 3045 3049 3053 3062 3066 3050 3043 3028 3009 2983 2956 2933 2931 2908 2863 2833 2806 2789 2771 2750 2734 2709 2681 2662 2646 2622 2604 2573 2554 2542 2527 2515 2504 2489 2463 2439 2430 2418 2409 2399 2387 2376 2362 2347 2329 2313 2298 2288 2279 2269 2261 2254 2247 2237 2229 2218 2209 2199 2183 2171 2160 2150 2141 2133 2125 2117 2109 2100 2091 2083 2075 2066 2054 2045 2038 2030 2018 2007 1995 1985 1978 1971 1967 1962 1955 1947 1940 1931 1925 1921 1917 1912 1905 1895 1886 1882 1879 1879 1882 1884 1883 1880 1876 1872 1869 1864 1859 1854 1851 1849 1848 1847 1846 1841 1836 1835
3630 3631 3633 3635 3636 3637 3639 3643 3647 3649 3652 3654 3658 3661 3665 3669 3677 3686 3697 3712 3725 3736 3746 3757 3770 3782 3801 3828 3850 3870 3890 3906 3925 3939 3953 3970 3986 4000 4015 4035 4056 4076 4091 4108 4128 4153 4160 4166 4143 4118 4087 4051 4039 4003 3979 3965 3935 3912 3902 3900 3886 3875 3859 3850 3839 3834 3829 3821 3808 3799 3788 3779 3769 3755 3743 3737 3735 3736 3736 3736 3736 3737 3737 3736 3738 3743 3748 3756 3769 3781 3792 3808 3819 3831 3835 3809 3794 3787 3780 3771 3764 3758 3736 3729 3719 3712 3703 3696 3689 3685 3678 3671 3664 3660 3656 3652 3647 3644 3640 3633 3624 3615 3607 3598 3589 3580 3569 3553 3542 3531 3515 3502 3496 3492 3490 3489 3487 3484 3479 3474 3466 3462 3460 3458 3457 3454 3450 3446 3447 3446 3446 3445 3447 3447 3447 3447 3444 3439 3436 3435 3435 3435 3436 3438 3438 3443 3445 3443 3454 3462 3460 3467 3464 3468 3470 3467 3463 3452 3440 3441 3441 3444 3455 3464 3465 3471 3481 3491 3508 3529 3557 3577 3588 3613 3643 3668 3702 3717 3726 3728 3730 3729 3729 3725 3717 3708 3697 3687 3678 3669 3665 3663 3658 3651 3642 3634 3623 3611 3599 3588 3574 3563 3549 3534 3516 3501 3486 3469 3451 3429 3398 3377 3368 3349 3333 3311 3293 3276 3264 3253 3246 3235 3227 3215 3207 3197 3190 3183 3177 3168 3150 3134 3122 3117 3118 3123 3126 3132 3138 3145 3155 3165 3178 3190 3201 3208 3218 3225 3246 3264 3280 3290 3304 3318 3336 3357 3378 3404 3420 3436 3478 3498 3527 3554 3604 3615 3619 3624 3619 3621 3619 3602 3571 3562 3522 3495 3480 3462 3426 3398 3383 3368 3358 3347 3339 3331 3317 3304 3281 3268 3262 3255 3252 3253 3257 3267 3279 3296 3311 3329 3347 3360 3360 3354 3334 3308 3296 3267 3235 3199 3189 3132 3123 3105 3081 3055 3055 3033 3019 3008 2982 2970 2961 2950 2941 2934 2925 2918 2914 2908 2904 2903 2909 2911 2914 2932 2939 2945 2940 2935 2941 2955 2965 2972 3001 3039 3043 3062 3063 3063 3060 3062 3070 3084 3079 3084 3076 3067 3053 3036 3002 2995 2973 2950 2931 2913 2905 2880 2847 2828 2807 2792 2771 2754 2732 2708 2670 2648 2641 2620 2594 2567 2554 2535 2524 2515 2502 2475 2449 2437 2427 2418 2408 2395 2382 2363 2346 2330 2312 2300 2292 2286 2277 2272 2267 2263 2253 2242 2229 2214 2203 2187 2174 2164 2157 2152 2145 2137 2129 2119 2108 2098 2090 2082 2073 2065 2058 2050 2042 2032 2023 2011 2004 1994 1985 1980 1976 1970 1964 1958 1951 1945 1940 1934 1927 1918 1908 1900 1894 1891 1891 1891 1891 1889 1887 1883 1878 1872 1864 1857 1853 1851 1850 1851 1850 1848 1845 1842 1843
3624 3628 3631 3635 3638 3640 3642 3645 3649 3651 3653 3656 3660 3663 3666 3669 3675 3684 3694 3709 3724 3736 3747 3759 3773 3785 3809 3831 3851 3869 3887 3906 3924 3940 3955 3970 3987 4004 4021 4042 4059 4081 4097 4119 4141 4157 4170 4168 4169 4174 4117 4086 4053 4030 3990 3969 3938 3918 3908 3903 3902 3887 3877 3868 3857 3847 3839 3829 3817 3806 3794 3785 3775 3765 3755 3748 3742 3741 3740 3738 3737 3736 3737 3736 3736 3739 3743 3750 3759 3770 3779 3786 3785 3784 3782 3774 3762 3755 3752 3746 3739 3734 3725 3719 3712 3704 3698 3692 3685 3679 3671 3663 3657 3653 3649 3645 3641 3638 3634 3627 3618 3611 3604 3590 3577 3565 3552 3543 3536 3529 3518 3511 3507 3504 3501 3497 3493 3487 3483 3480 3474 3472 3472 3473 3473 3472 3470 3462 3465 3465 3465 3465 3467 3466 3466 3467 3465 3461 3458 3456 3455 3456 3456 3460 3462 3470 3474 3481 3486 3490 3491 3490 3487 3487 3489 3488 3481 3467 3459 3455 3465 3465 3472 3479 3482 3488 3500 3512 3524 3545 3570 3590 3612 3646 3675 3708 3722 3733 3735 3733 3730 3729 3723 3716 3704 3693 3685 3680 3673 3666 3663 3661 3653 3643 3633 3626 3615 3604 3595 3581 3570 3561 3545 3534 3518 3507 3497 3482 3464 3433 3405 3385 3376 3361 3330 3311 3289 3275 3268 3259 3250 3240 3229 3220 3215 3209 3206 3202 3194 3186 3177 3162 3146 3139 3139 3140 3140 3142 3149 3158 3165 3179 3196 3210 3225 3238 3251 3267 3278 3288 3294 3303 3313 3336 3360 3380 3399 3417 3435 3457 3500 3522 3564 3602 3633 3645 3649 3637 3621 3624 3624 3604 3584 3570 3543 3516 3500 3468 3466 3405 3403 3387 3377 3366 3357 3344 3331 3312 3294 3283 3275 3270 3269 3272 3279 3292 3302 3317 3331 3348 3358 3362 3357 3341 3309 3303 3265 3236 3206 3187 3163 3136 3118 3107 3078 3070 3056 3043 3016 3013 3003 2987 2978 2969 2965 2962 2954 2937 2931 2925 2925 2926 2932 2943 2953 2961 2966 2971 2971 2974 2972 2991 2992 3026 3064 3109 3103 3099 3099 3104 3105 3112 3109 3105 3106 3096 3089 3072 3046 3023 3003 2992 2969 2958 2936 2918 2909 2880 2860 2845 2834 2813 2797 2792 2782 2734 2714 2671 2637 2630 2597 2576 2560 2545 2532 2524 2516 2495 2468 2447 2436 2423 2413 2397 2378 2360 2345 2334 2323 2313 2307 2299 2292 2285 2280 2272 2263 2245 2231 2219 2209 2196 2188 2178 2173 2169 2162 2153 2138 2125 2114 2105 2100 2094 2088 2081 2073 2066 2061 2053 2047 2036 2028 2021 2012 2003 1995 1988 1981 1975 1970 1964 1958 1955 1949 1936 1922 1910 1903 1901 1899 1898 1896 1893 1889 1885 1878 1869 1859 1854 1850 1848 1850 1852 1852 1851 1851 1850 1850
3619 3625 3629 3635 3639 3641 3644 3649 3653 3655 3656 3658 3661 3664 3668 3673 3678 3686 3694 3707 3721 3733 3745 3757 3770 3784 3807 3829 3848 3866 3884 3903 3927 3945 3959 3974 3992 4016 4037 4052 4068 4084 4104 4130 4148 4161 4172 4175 4183 4179 4169 4111 4080 4035 3995 3955 3930 3917 3905 3906 3896 3892 3882 3876 3874 3865 3858 3843 3831 3818 3805 3794 3787 3776 3770 3763 3755 3749 3745 3742 3738 3736 3735 3736 3736 3736 3740 3742 3747 3753 3761 3766 3767 3766 3763 3757 3750 3743 3736 3730 3722 3716 3712 3706 3700 3695 3690 3685 3678 3670 3660 3650 3644 3642 3639 3634 3629 3624 3618 3614 3608 3601 3591 3577 3567 3557 3544 3535 3529 3525 3522 3517 3515 3513 3510 3508 3506 3502 3497 3494 3491 3486 3483 3487 3489 3489 3487 3484 3485 3484 3487 3490 3488 3487 3487 3485 3486 3484 3483 3477 3476 3477 3474 3479 3488 3506 3516 3516 3518 3514 3508 3499 3499 3502 3509 3507 3499 3489 3479 3479 3487 3494 3499 3507 3511 3512 3519 3528 3544 3563 3585 3602 3631 3666 3708 3727 3735 3739 3738 3734 3726 3719 3711 3699 3688 3679 3674 3668 3662 3659 3655 3648 3641 3629 3621 3615 3607 3594 3587 3580 3573 3561 3545 3526 3513 3503 3493 3481 3470 3438 3410 3390 3374 3348 3337 3314 3302 3283 3278 3268 3257 3245 3233 3224 3221 3219 3218 3213 3206 3198 3189 3181 3172 3166 3164 3163 3162 3168 3171 3179 3189 3203 3219 3234 3249 3263 3277 3289 3297 3306 3316 3326 3341 3362 3377 3399 3413 3430 3446 3482 3526 3559 3604 3638 3664 3675 3670 3647 3637 3620 3622 3609 3602 3578 3553 3540 3506 3491 3469 3435 3409 3401 3390 3374 3362 3351 3341 3328 3314 3300 3295 3292 3293 3304 3312 3321 3325 3340 3355 3362 3368 3369 3358 3338 3308 3290 3254 3232 3204 3183 3164 3134 3116 3113 3095 3069 3060 3044 3037 3021 3014 3018 2997 2992 2984 2979 2974 2960 2953 2949 2950 2952 2959 2973 2985 2995 3007 3004 3012 3008 3015 3031 3082 3112 3134 3136 3133 3134 3138 3139 3142 3143 3137 3127 3117 3108 3091 3067 3046 3027 3014 2997 2976 2960 2950 2923 2909 2895 2869 2865 2845 2834 2813 2800 2787 2782 2724 2678 2650 2628 2610 2586 2575 2559 2544 2533 2523 2509 2478 2460 2445 2429 2415 2401 2381 2355 2350 2344 2339 2333 2329 2318 2309 2302 2292 2284 2267 2244 2232 2226 2215 2205 2198 2193 2189 2187 2180 2168 2152 2138 2125 2116 2111 2106 2101 2096 2091 2083 2077 2071 2066 2058 2050 2042 2034 2026 2017 2006 1996 1989 1984 1977 1970 1966 1960 1952 1940 1928 1918 1911 1906 1903 1900 1896 1892 1887 1879 1869 1862 1856 1853 1852 1853 1852 1852 1851 1852 1852 1853
3617 3621 3626 3632 3636 3638 3641 3646 3651 3655 3658 3660 3664 3667 3671 3675 3681 3688 3695 3706 3717 3728 3739 3755 3772 3785 3803 3820 3839 3859 3884 3906 3933 3955 3969 3982 4000 4021 4040 4057 4072 4088 4107 4126 4148 4161 4172 4181 4185 4185 4182 4124 4082 4028 3990 3948 3922 3911 3904 3894 3892 3886 3889 3878 3871 3871 3864 3852 3839 3826 3815 3808 3797 3787 3781 3776 3770 3762 3754 3748 3741 3737 3737 3739 3740 3739 3737 3737 3739 3742 3746 3750 3751 3750 3749 3745 3738 3731 3726 3719 3714 3708 3704 3698 3692 3685 3679 3672 3663 3652 3644 3639 3636 3634 3631 3625 3619 3615 3612 3609 3605 3595 3582 3569 3559 3551 3544 3539 3531 3529 3528 3529 3529 3530 3530 3530 3525 3520 3517 3511 3504 3498 3499 3500 3502 3500 3500 3501 3501 3501 3503 3503 3506 3505 3501 3502 3499 3500 3500 3504 3503 3502 3497 3507 3516 3535 3554 3557 3558 3548 3535 3528 3522 3520 3527 3526 3519 3513 3511 3513 3518 3528 3534 3535 3548 3554 3557 3570 3584 3590 3601 3630 3652 3675 3713 3728 3732 3734 3731 3725 3717 3708 3699 3690 3678 3667 3664 3658 3655 3650 3646 3638 3633 3623 3614 3607 3601 3592 3583 3574 3567 3557 3537 3522 3508 3492 3482 3469 3461 3442 3414 3388 3372 3363 3332 3320 3314 3301 3287 3276 3264 3249 3239 3235 3231 3228 3225 3216 3207 3203 3194 3190 3191 3192 3191 3191 3190 3190 3196 3205 3217 3232 3245 3258 3269 3279 3290 3302 3313 3325 3341 3355 3367 3385 3399 3415 3433 3452 3475 3524 3554 3602 3634 3671 3687 3695 3696 3674 3649 3635 3623 3609 3604 3600 3577 3560 3531 3512 3483 3460 3432 3411 3401 3383 3372 3362 3352 3337 3325 3322 3318 3315 3319 3334 3342 3346 3353 3365 3375 3374 3372 3371 3341 3322 3295 3258 3245 3228 3203 3184 3157 3137 3135 3115 3098 3085 3068 3061 3056 3045 3044 3040 3033 3023 3011 3001 2991 2982 2978 2975 2977 2985 2991 3001 3018 3038 3044 3045 3041 3044 3068 3101 3121 3138 3143 3146 3157 3164 3167 3171 3170 3173 3163 3150 3131 3108 3091 3072 3056 3035 3024 3009 2984 2966 2950 2935 2921 2893 2879 2867 2864 2836 2807 2801 2789 2784 2734 2689 2657 2642 2632 2596 2579 2566 2553 2543 2530 2513 2485 2460 2445 2431 2413 2400 2380 2362 2357 2356 2353 2353 2338 2331 2320 2312 2300 2286 2263 2249 2237 2232 2226 2218 2208 2200 2195 2192 2187 2177 2163 2149 2136 2126 2121 2116 2112 2109 2104 2098 2093 2085 2079 2073 2066 2057 2050 2045 2037 2030 2020 2010 1998 1988 1981 1974 1971 1959 1946 1935 1924 1914 1909 1907 1905 1902 1897 1888 1879 1871 1865 1860 1855 1855 1857 1855 1852 1851 1852 1855 1855
3614 3618 3624 3629 3633 3637 3640 3645 3648 3653 3655 3657 3659 3664 3669 3674 3680 3685 3691 3700 3711 3722 3734 3749 3767 3780 3794 3814 3839 3861 3885 3909 3933 3953 3970 3985 4000 4016 4033 4050 4068 4086 4103 4120 4137 4152 4168 4181 4190 4193 4187 4132 4081 4024 3985 3942 3929 3907 3888 3887 3889 3885 3879 3872 3865 3865 3857 3849 3837 3825 3820 3809 3803 3797 3790 3784 3778 3771 3763 3755 3748 3742 3738 3738 3737 3736 3733 3731 3731 3734 3736 3738 3738 3736 3733 3729 3724 3718 3714 3709 3704 3701 3697 3691 3683 3672 3664 3656 3649 3643 3639 3638 3636 3634 3630 3624 3617 3614 3611 3608 3600 3591 3576 3564 3557 3552 3550 3546 3542 3539 3538 3539 3541 3540 3538 3537 3533 3529 3525 3521 3516 3514 3513 3516 3513 3513 3516 3518 3517 3518 3520 3521 3524 3523 3520 3512 3509 3513 3521 3527 3538 3538 3546 3546 3569 3596 3605 3606 3596 3589 3583 3581 3578 3573 3565 3562 3549 3547 3548 3546 3552 3563 3575 3581 3587 3598 3602 3608 3616 3632 3638 3655 3672 3686 3716 3726 3728 3730 3724 3718 3707 3698 3688 3681 3673 3665 3659 3655 3649 3641 3634 3627 3623 3618 3611 3603 3591 3583 3578 3571 3560 3547 3526 3513 3503 3487 3476 3462 3444 3425 3408 3393 3383 3367 3355 3339 3324 3315 3306 3293 3278 3262 3253 3247 3243 3238 3231 3223 3214 3205 3202 3200 3202 3206 3209 3209 3207 3210 3216 3224 3236 3252 3267 3278 3292 3301 3309 3320 3339 3355 3372 3380 3392 3416 3428 3444 3461 3487 3510 3546 3599 3639 3666 3693 3709 3714 3709 3695 3677 3644 3634 3616 3599 3594 3590 3563 3550 3526 3505 3481 3457 3430 3407 3390 3377 3370 3364 3355 3346 3344 3334 3338 3347 3360 3368 3371 3383 3391 3396 3383 3374 3348 3321 3307 3275 3252 3237 3217 3201 3182 3161 3144 3133 3122 3112 3103 3100 3092 3084 3077 3071 3067 3063 3060 3043 3022 3011 3003 3000 3000 3008 3014 3024 3034 3049 3066 3073 3080 3089 3111 3103 3121 3160 3167 3170 3175 3179 3189 3198 3198 3187 3181 3178 3162 3147 3125 3104 3085 3071 3059 3037 3006 2985 2971 2961 2945 2934 2918 2886 2870 2867 2827 2810 2799 2777 2760 2732 2700 2668 2642 2632 2601 2580 2569 2557 2542 2524 2501 2481 2459 2442 2427 2411 2397 2393 2376 2366 2363 2361 2355 2349 2333 2330 2321 2299 2288 2275 2259 2250 2245 2239 2230 2218 2206 2198 2193 2188 2181 2171 2161 2150 2143 2138 2135 2129 2126 2123 2119 2111 2101 2093 2086 2080 2075 2071 2064 2055 2047 2038 2030 2016 2003 1992 1984 1979 1970 1957 1943 1932 1918 1910 1908 1907 1902 1895 1886 1876 1870 1866 1863 1859 1858 1858 1858 1855 1855 1857 1858 1859
3616 3619 3623 3627 3631 3636 3641 3643 3648 3652 3654 3657 3661 3666 3671 3678 3684 3691 3698 3704 3713 3723 3735 3748 3763 3778 3793 3815 3845 3866 3886 3908 3926 3944 3962 3978 3993 4008 4028 4049 4065 4089 4107 4124 4139 4153 4171 4187 4196 4195 4180 4136 4080 4034 3991 3952 3930 3909 3886 3887 3890 3884 3878 3872 3865 3858 3850 3836 3829 3820 3813 3807 3802 3801 3797 3793 3786 3778 3769 3760 3754 3747 3739 3734 3732 3730 3725 3721 3719 3721 3721 3719 3711 3709 3706 3705 3699 3696 3694 3695 3693 3689 3683 3677 3666 3660 3655 3649 3644 3641 3639 3639 3637 3635 3633 3627 3621 3616 3609 3602 3591 3577 3568 3561 3559 3558 3558 3558 3557 3554 3555 3554 3555 3555 3553 3549 3547 3543 3538 3534 3530 3529 3531 3532 3531 3533 3535 3537 3538 3538 3540 3542 3545 3543 3540 3532 3531 3541 3549 3555 3569 3588 3609 3616 3630 3644 3649 3641 3636 3628 3625 3618 3614 3606 3598 3593 3590 3587 3583 3585 3597 3613 3629 3641 3642 3645 3644 3650 3663 3673 3679 3684 3693 3705 3716 3720 3723 3721 3717 3708 3698 3687 3679 3672 3667 3662 3653 3648 3641 3628 3623 3616 3613 3609 3603 3598 3587 3581 3574 3567 3557 3531 3509 3500 3493 3486 3468 3451 3435 3419 3409 3397 3384 3379 3362 3347 3339 3324 3312 3303 3293 3279 3272 3264 3258 3251 3243 3233 3225 3222 3220 3219 3220 3222 3224 3222 3223 3227 3233 3240 3254 3271 3286 3301 3314 3325 3334 3346 3362 3380 3394 3409 3424 3442 3454 3469 3487 3504 3534 3585 3626 3649 3677 3706 3716 3721 3726 3704 3685 3671 3645 3636 3619 3602 3584 3574 3552 3535 3512 3493 3473 3443 3411 3405 3385 3380 3375 3378 3367 3367 3358 3360 3369 3380 3395 3407 3412 3414 3402 3397 3372 3338 3319 3303 3275 3252 3234 3217 3200 3183 3166 3151 3143 3128 3121 3121 3120 3118 3111 3103 3095 3089 3084 3076 3068 3055 3042 3035 3030 3030 3038 3042 3047 3060 3079 3089 3106 3118 3132 3167 3144 3158 3195 3207 3205 3209 3213 3217 3216 3206 3196 3186 3175 3163 3149 3134 3114 3101 3087 3071 3038 3012 2995 2986 2977 2957 2941 2914 2893 2864 2834 2817 2795 2782 2760 2747 2738 2705 2678 2651 2628 2581 2578 2570 2563 2555 2523 2495 2477 2459 2443 2429 2427 2416 2401 2386 2380 2373 2370 2365 2352 2341 2333 2325 2318 2302 2282 2277 2272 2267 2260 2250 2236 2223 2213 2205 2197 2190 2183 2175 2170 2167 2165 2166 2164 2160 2154 2145 2132 2119 2105 2099 2096 2093 2090 2084 2075 2064 2054 2045 2033 2019 2005 1997 1992 1984 1974 1963 1948 1933 1922 1916 1911 1905 1898 1889 1879 1869 1865 1863 1863 1861 1860 1860 1860 1859 1860 1861 1862
3621 3624 3627 3632 3635 3640 3643 3643 3647 3650 3655 3659 3664 3669 3674 3681 3688 3695 3701 3707 3714 3723 3735 3747 3761 3775 3792 3824 3848 3865 3882 3901 3923 3940 3955 3974 3993 4010 4030 4045 4070 4096 4114 4130 4144 4159 4174 4186 4198 4200 4172 4151 4101 4048 4021 3974 3942 3911 3891 3888 3888 3876 3876 3869 3861 3854 3835 3827 3820 3814 3807 3804 3802 3799 3796 3789 3784 3778 3771 3762 3752 3746 3736 3728 3722 3718 3714 3711 3708 3704 3699 3693 3687 3683 3679 3675 3672 3672 3671 3673 3672 3671 3668 3665 3660 3654 3648 3645 3643 3641 3640 3639 3637 3634 3628 3624 3618 3610 3599 3588 3579 3572 3567 3566 3565 3565 3565 3565 3566 3567 3569 3573 3570 3567 3563 3556 3553 3547 3544 3541 3542 3544 3550 3551 3554 3551 3552 3555 3558 3561 3562 3565 3566 3564 3564 3559 3566 3578 3596 3616 3628 3645 3652 3655 3668 3673 3673 3668 3664 3657 3652 3644 3635 3626 3622 3616 3619 3613 3612 3634 3642 3643 3664 3662 3668 3678 3682 3690 3694 3701 3710 3717 3718 3719 3720 3720 3718 3713 3706 3700 3692 3681 3670 3661 3657 3650 3644 3637 3629 3620 3615 3606 3600 3595 3589 3586 3580 3574 3566 3555 3535 3507 3488 3485 3479 3463 3453 3437 3417 3409 3399 3392 3385 3376 3362 3355 3344 3330 3318 3311 3306 3298 3291 3283 3275 3262 3251 3245 3241 3238 3235 3233 3234 3236 3239 3243 3243 3245 3249 3258 3271 3289 3303 3320 3340 3351 3362 3371 3388 3402 3416 3429 3450 3463 3475 3490 3506 3530 3560 3589 3628 3656 3681 3707 3721 3730 3729 3724 3705 3677 3661 3646 3642 3614 3589 3581 3554 3548 3531 3505 3474 3467 3443 3418 3408 3406 3400 3395 3389 3390 3389 3394 3404 3409 3433 3433 3430 3419 3409 3397 3377 3327 3320 3299 3272 3258 3240 3222 3208 3193 3178 3163 3158 3141 3138 3140 3144 3146 3141 3130 3121 3115 3108 3097 3086 3076 3070 3063 3060 3059 3062 3064 3070 3086 3105 3119 3137 3160 3176 3189 3212 3226 3231 3237 3241 3238 3234 3229 3223 3213 3200 3185 3173 3162 3152 3141 3112 3101 3084 3066 3037 3016 3002 3001 2987 2974 2933 2900 2884 2832 2823 2807 2786 2773 2752 2739 2720 2704 2682 2650 2616 2585 2576 2574 2566 2558 2531 2497 2481 2458 2449 2446 2435 2425 2416 2406 2400 2387 2377 2366 2357 2347 2338 2328 2324 2315 2302 2294 2288 2284 2278 2270 2255 2242 2235 2227 2217 2205 2196 2188 2186 2187 2190 2188 2186 2182 2176 2165 2152 2141 2127 2119 2115 2114 2111 2107 2099 2085 2068 2058 2049 2035 2025 2016 2006 1999 1986 1972 1959 1943 1927 1914 1907 1900 1894 1888 1878 1870 1864 1862 1862 1863 1864 1865 1865 1863 1863 1863 1863
3627 3631 3635 3639 3642 3645 3648 3649 3653 3656 3659 3662 3666 3670 3676 3684 3691 3698 3706 3713 3719 3727 3737 3747 3759 3777 3800 3828 3845 3863 3881 3898 3923 3941 3958 3979 3997 4014 4034 4052 4069 4094 4117 4130 4143 4158 4170 4184 4192 4193 4169 4146 4102 4063 4032 3990 3952 3918 3894 3878 3881 3871 3867 3857 3847 3838 3828 3821 3816 3813 3808 3804 3801 3797 3792 3786 3779 3774 3767 3758 3747 3738 3728 3721 3715 3710 3706 3702 3697 3692 3685 3676 3671 3667 3665 3664 3664 3663 3663 3664 3665 3664 3662 3659 3655 3649 3646 3645 3643 3640 3638 3633 3629 3624 3620 3617 3610 3602 3590 3581 3575 3574 3571 3570 3570 3569 3569 3568 3570 3570 3572 3571 3568 3567 3561 3556 3555 3554 3554 3555 3560 3565 3570 3571 3569 3568 3567 3570 3571 3574 3577 3582 3591 3596 3598 3602 3611 3626 3642 3659 3671 3675 3679 3689 3699 3701 3700 3697 3686 3676 3666 3653 3652 3641 3639 3636 3641 3642 3656 3679 3686 3688 3697 3698 3702 3703 3709 3714 3719 3719 3721 3722 3721 3719 3717 3714 3708 3701 3694 3689 3683 3670 3663 3658 3650 3640 3634 3629 3623 3613 3603 3595 3588 3583 3575 3565 3559 3554 3541 3514 3495 3474 3459 3452 3444 3438 3427 3417 3407 3395 3381 3378 3373 3365 3358 3351 3343 3332 3323 3318 3313 3305 3296 3289 3282 3268 3260 3256 3253 3250 3248 3249 3251 3253 3256 3258 3257 3259 3263 3274 3285 3302 3320 3346 3364 3378 3387 3396 3407 3419 3436 3457 3475 3485 3496 3516 3532 3550 3568 3587 3608 3641 3673 3697 3711 3724 3731 3736 3724 3708 3678 3665 3653 3639 3604 3573 3561 3553 3541 3515 3489 3478 3463 3458 3447 3432 3438 3434 3433 3429 3429 3431 3437 3451 3457 3453 3442 3435 3413 3389 3358 3331 3316 3297 3277 3262 3251 3235 3218 3204 3191 3187 3175 3160 3160 3162 3163 3163 3162 3157 3149 3141 3129 3118 3103 3095 3091 3089 3087 3081 3083 3088 3095 3116 3134 3150 3164 3185 3206 3219 3226 3259 3272 3270 3258 3249 3242 3230 3211 3199 3187 3180 3175 3159 3139 3119 3106 3087 3067 3047 3030 3017 3009 3007 2980 2967 2917 2887 2848 2829 2802 2804 2781 2772 2749 2733 2720 2703 2678 2655 2620 2608 2585 2579 2571 2563 2543 2512 2498 2483 2461 2454 2451 2432 2430 2429 2422 2405 2386 2372 2362 2350 2351 2340 2333 2323 2317 2314 2306 2300 2295 2286 2273 2260 2252 2246 2239 2225 2212 2203 2200 2202 2201 2200 2198 2194 2187 2177 2167 2159 2151 2145 2137 2132 2130 2127 2120 2104 2088 2075 2066 2055 2047 2037 2026 2014 2000 1985 1971 1952 1932 1917 1906 1899 1893 1887 1878 1869 1864 1864 1866 1868 1868 1868 1869 1870 1868 1865 1863
3631 3636 3641 3644 3647 3649 3651 3654 3655 3658 3661 3665 3670 3675 3680 3686 3691 3697 3703 3709 3717 3725 3735 3742 3754 3774 3794 3827 3845 3862 3876 3895 3922 3938 3957 3978 3996 4014 4035 4049 4063 4080 4104 4125 4141 4155 4170 4180 4186 4172 4166 4133 4098 4070 4051 3997 3951 3906 3884 3879 3875 3866 3856 3847 3837 3830 3823 3818 3815 3812 3809 3806 3803 3800 3796 3789 3781 3774 3766 3754 3739 3729 3722 3717 3712 3706 3702 3698 3690 3684 3676 3670 3666 3663 3663 3662 3663 3662 3662 3664 3664 3663 3660 3657 3653 3648 3645 3642 3640 3637 3634 3629 3622 3619 3615 3609 3601 3591 3581 3574 3572 3571 3569 3568 3568 3568 3568 3567 3567 3567 3566 3565 3564 3561 3560 3559 3561 3565 3569 3574 3579 3583 3585 3588 3591 3589 3586 3581 3581 3588 3595 3606 3614 3623 3630 3633 3644 3660 3673 3682 3688 3695 3705 3720 3732 3733 3730 3726 3709 3704 3681 3656 3653 3651 3657 3665 3681 3711 3719 3720 3714 3717 3718 3720 3720 3722 3722 3720 3718 3719 3716 3715 3714 3707 3700 3696 3692 3686 3681 3675 3667 3660 3656 3653 3647 3638 3631 3624 3616 3606 3592 3583 3577 3570 3560 3550 3538 3526 3512 3486 3468 3454 3444 3435 3424 3415 3407 3397 3386 3379 3371 3367 3362 3357 3352 3345 3338 3331 3324 3318 3312 3306 3298 3294 3287 3277 3270 3265 3262 3261 3261 3260 3262 3264 3266 3265 3268 3268 3276 3290 3300 3312 3335 3357 3386 3402 3412 3421 3429 3439 3455 3474 3492 3503 3518 3535 3552 3563 3586 3592 3613 3635 3668 3698 3705 3723 3739 3748 3741 3732 3712 3680 3667 3640 3605 3580 3570 3564 3555 3531 3520 3493 3483 3471 3467 3462 3464 3462 3467 3467 3476 3480 3483 3480 3476 3468 3452 3435 3405 3375 3357 3340 3319 3300 3282 3268 3253 3240 3229 3216 3205 3198 3192 3188 3184 3179 3176 3176 3173 3170 3162 3152 3141 3130 3119 3113 3110 3111 3112 3106 3108 3109 3114 3130 3148 3170 3194 3215 3237 3266 3283 3287 3289 3279 3268 3258 3236 3218 3201 3191 3185 3171 3154 3129 3112 3098 3086 3075 3056 3047 3034 3016 3010 2981 2964 2936 2911 2864 2843 2808 2803 2797 2778 2770 2755 2734 2720 2695 2664 2645 2635 2618 2605 2590 2574 2565 2549 2521 2513 2501 2481 2468 2466 2460 2453 2442 2431 2417 2401 2386 2375 2367 2365 2358 2352 2342 2334 2327 2320 2315 2309 2301 2291 2278 2266 2259 2252 2242 2233 2226 2222 2223 2223 2224 2221 2212 2200 2187 2178 2173 2168 2161 2153 2147 2144 2140 2133 2121 2107 2098 2088 2080 2066 2057 2045 2036 2022 2005 1989 1972 1951 1931 1916 1905 1897 1890 1883 1874 1873 1870 1871 1871 1869 1870 1873 1876 1874 1870 1864
3635 3640 3645 3648 3651 3652 3653 3655 3657 3660 3664 3670 3676 3683 3688 3691 3694 3698 3702 3708 3717 3725 3735 3743 3752 3769 3795 3826 3845 3863 3876 3896 3916 3937 3950 3967 3987 4013 4025 4046 4057 4073 4097 4119 4133 4148 4162 4173 4174 4169 4132 4106 4083 4063 4050 3981 3939 3886 3877 3875 3867 3860 3852 3844 3836 3830 3824 3820 3815 3813 3809 3807 3804 3802 3798 3794 3789 3778 3768 3751 3735 3727 3722 3715 3709 3705 3701 3697 3689 3679 3671 3667 3664 3662 3661 3660 3660 3659 3660 3660 3661 3660 3657 3652 3649 3647 3643 3639 3636 3634 3631 3627 3623 3619 3614 3605 3595 3585 3577 3572 3570 3568 3565 3565 3563 3563 3564 3566 3566 3566 3567 3568 3569 3570 3569 3569 3572 3577 3583 3589 3594 3600 3604 3606 3608 3611 3612 3611 3610 3621 3627 3635 3639 3646 3650 3662 3674 3687 3698 3704 3711 3722 3736 3748 3752 3754 3755 3745 3727 3725 3704 3675 3661 3663 3668 3692 3723 3731 3731 3731 3729 3726 3723 3721 3718 3716 3715 3713 3707 3703 3699 3696 3690 3686 3682 3677 3675 3672 3667 3664 3659 3650 3645 3643 3639 3634 3628 3621 3613 3603 3592 3579 3572 3562 3546 3536 3525 3504 3481 3461 3445 3441 3430 3414 3404 3397 3391 3383 3377 3370 3365 3361 3356 3351 3344 3337 3331 3327 3322 3315 3310 3307 3304 3300 3294 3286 3278 3272 3268 3265 3265 3264 3265 3266 3268 3269 3272 3279 3292 3306 3316 3327 3354 3388 3411 3427 3439 3448 3456 3467 3478 3493 3506 3525 3544 3563 3574 3584 3599 3614 3630 3672 3692 3701 3717 3743 3771 3775 3762 3752 3738 3723 3681 3653 3630 3603 3579 3569 3566 3553 3536 3520 3509 3503 3495 3492 3494 3497 3502 3505 3513 3514 3515 3509 3491 3480 3466 3432 3399 3381 3365 3348 3330 3309 3291 3274 3261 3250 3240 3230 3219 3216 3216 3211 3210 3204 3196 3191 3186 3179 3171 3158 3145 3139 3134 3133 3130 3130 3134 3128 3127 3126 3137 3156 3180 3207 3231 3259 3278 3290 3294 3290 3288 3283 3265 3253 3231 3211 3194 3179 3170 3150 3134 3112 3091 3074 3068 3058 3043 3030 3014 2997 2980 2970 2943 2924 2905 2870 2837 2811 2814 2806 2781 2761 2751 2732 2726 2707 2666 2649 2641 2628 2632 2614 2592 2573 2564 2543 2525 2509 2501 2491 2487 2473 2462 2449 2436 2425 2420 2414 2407 2397 2390 2378 2368 2357 2346 2340 2335 2327 2321 2315 2306 2293 2278 2269 2261 2255 2250 2246 2244 2245 2244 2243 2237 2230 2217 2198 2185 2180 2177 2172 2165 2158 2151 2145 2137 2127 2116 2106 2097 2087 2079 2073 2066 2057 2045 2029 2012 1991 1970 1950 1931 1913 1902 1893 1887 1880 1878 1877 1876 1873 1869 1871 1876 1879 1878 1874 1869
3635 3640 3644 3646 3648 3651 3653 3655 3658 3664 3670 3676 3682 3686 3692 3694 3697 3699 3703 3710 3720 3728 3735 3745 3755 3769 3795 3822 3840 3855 3870 3886 3906 3927 3942 3957 3981 4002 4025 4043 4054 4072 4098 4118 4132 4147 4157 4162 4160 4142 4117 4110 4076 4054 4027 3986 3930 3892 3878 3872 3866 3858 3851 3842 3835 3831 3826 3823 3818 3814 3809 3805 3802 3799 3796 3795 3793 3787 3771 3756 3740 3729 3722 3717 3711 3708 3703 3699 3690 3681 3672 3668 3665 3663 3664 3663 3662 3661 3663 3661 3660 3658 3655 3651 3648 3647 3644 3641 3638 3633 3631 3630 3628 3622 3611 3599 3590 3580 3573 3569 3566 3566 3563 3562 3563 3565 3565 3566 3566 3568 3570 3573 3579 3582 3584 3585 3587 3589 3596 3604 3614 3624 3626 3629 3630 3634 3637 3638 3643 3651 3657 3661 3666 3667 3675 3688 3699 3714 3722 3732 3740 3749 3755 3760 3765 3770 3770 3767 3760 3746 3724 3728 3714 3711 3728 3730 3740 3740 3742 3739 3734 3727 3719 3712 3706 3704 3699 3693 3688 3685 3679 3672 3663 3656 3654 3655 3656 3656 3652 3647 3639 3633 3632 3634 3632 3629 3625 3618 3607 3597 3576 3579 3567 3543 3538 3523 3504 3479 3452 3435 3427 3427 3414 3400 3394 3389 3383 3375 3367 3362 3358 3354 3349 3343 3337 3333 3329 3325 3320 3316 3312 3312 3312 3309 3296 3292 3282 3275 3271 3269 3267 3267 3267 3268 3269 3274 3285 3300 3315 3327 3333 3354 3386 3412 3432 3445 3460 3471 3478 3486 3493 3505 3521 3548 3572 3587 3600 3609 3623 3641 3669 3691 3709 3720 3746 3771 3790 3824 3823 3800 3774 3736 3719 3688 3650 3630 3604 3587 3578 3575 3549 3551 3534 3526 3519 3527 3521 3527 3538 3544 3547 3544 3529 3512 3505 3490 3473 3438 3394 3383 3369 3357 3340 3324 3307 3289 3273 3261 3251 3243 3236 3232 3237 3241 3239 3231 3220 3209 3200 3191 3183 3167 3158 3157 3154 3153 3157 3161 3159 3156 3153 3151 3168 3189 3211 3232 3254 3274 3287 3296 3296 3289 3283 3274 3255 3234 3215 3204 3186 3171 3146 3123 3103 3077 3064 3060 3051 3039 3028 3009 3000 2979 2969 2945 2932 2919 2904 2872 2844 2822 2814 2803 2781 2780 2764 2748 2734 2721 2698 2665 2654 2653 2644 2633 2617 2597 2570 2556 2544 2530 2522 2510 2501 2484 2469 2455 2445 2447 2447 2446 2440 2430 2414 2399 2389 2376 2365 2356 2347 2339 2332 2326 2317 2306 2293 2280 2271 2264 2261 2260 2257 2255 2254 2251 2247 2240 2227 2211 2197 2192 2189 2186 2180 2169 2156 2145 2135 2128 2118 2109 2100 2092 2083 2076 2069 2060 2050 2038 2023 2008 1988 1965 1945 1929 1914 1901 1889 1881 1879 1879 1879 1876 1874 1874 1876 1878 1879 1880 1876
